41.5673666666667,3.44282333333333,-1.88756333333333,-0.0453592370965257,8.79160724848866e-07,-0.99897074011667
40.821925,6.2166425,-1.8536875,-0.0181897454929102,0.0146377717087428,0.999727397243021
40.5399285714286,7.93149571428571,-1.84082142857143,0.0980131692262712,0.00612743023805023,0.995166254078634
40.2700857142857,9.73101571428571,-1.84871,0.0643145282618422,0.178447027239445,-0.981845354383195
40.888475,12.216175,-1.8201025,0.165765066740251,-0.152693291726914,0.974272395847383
41.6762,12.7130833333333,2.597005,-0.273401195029815,0.77758164895763,-0.566231901044618
41.0117,14.3038357142857,-1.27626735714286,0.157465638147736,0.672592539380012,0.723065590920404
41.0119444444444,14.6811444444444,-0.539722777777778,-0.587486034439134,0.46074924746561,-0.665259566108489
41.6475918918919,13.7915378378378,2.5839045945946,0.932186819447344,0.249192135142759,0.262547164204144
41.3994551724138,13.6531068965517,3.81231620689655,0.242004785644952,-0.167141303410582,0.955770614959025
41.2877,14.8963,-1.72945,0.070682902692689,-0.907704920463942,-0.413612988955237
41.2800666666667,15.6701166666667,0.172221666666667,0.92735918437651,0.368999429340025,-0.06200293782773
40.9958625,15.9307625,1.80113875,0.943862712355161,-0.133966400039278,-0.301953943319301
40.9387785714286,17.7022214285714,2.31714428571429,0.638670300564448,-0.767332478819813,-0.0574553228618394
42.592975,-21.90735,2.752225,0.738800714707454,-0.00367625292132012,0.673913933015347
43.6901,-21.2189,3.35627,0.876094469646001,0.247220947587994,-0.41393270386548
42.1645571428571,-19.4690857142857,0.693968142857143,0.78954064653604,-0.522861815333613,0.321311514785093
42.4758857142857,-20.4142428571429,2.27888071428571,0.703330043710634,0.222502004907545,0.675144212317724
43.016,-19.8490928571429,4.44758714285714,0.975414616993431,-0.139753366814385,0.170397539358998
43.3328,-19.6027,5.623325,-0.944402575350532,-0.323049259523545,0.0611796664960844
42.623475,-18.6691375,0.984293375,0.422698173437501,0.0701487190883389,0.90355155435806
42.8814857142857,-18.2443785714286,2.25066464285714,0.641556186468546,-0.722522764749781,0.257616990942503
42.6246508196721,-18.3927786885246,4.24390409836066,0.935300792219079,-0.0434675847392431,0.351173742115353
42.3116785714286,-16.6694785714286,2.89371642857143,0.824104253971267,-0.330486728014199,-0.460033369651519
42.9691925925926,-16.797437037037,3.89286814814815,0.998596678821017,0.0529575809776628,0.000409468716054862
42.6562,-1.81769,-1.862825,0.928072383979854,-0.272739467898942,-0.253564257623489
41.9566,-2.78267,6.1957,-0.331893664153571,-0.918565879369182,-0.214670260989821
42.6474,-0.9792405,-1.936605,-0.207387139938321,-0.0894761825237882,-0.974158399311515
42.1758,1.93443,-1.91519,-0.964779625852768,-0.262858162134708,0.0102888356268802
43.0093,7.776202,-1.862346,0.1613650871038,0.0112745112747229,-0.986830377552039
42.6787666666667,9.67782666666667,-1.88761666666667,-0.435427182180906,0.00299841087891324,-0.900218961447823
42.9107666666667,11.8759166666667,-1.74843166666667,0.137369052772073,-0.0856244853878691,0.986812135536732
43.2580666666667,12.2866333333333,2.51306866666667,0.800645563118424,-0.5895599975735,0.106703755884765
42.8387125,12.3955166666667,3.777665,0.499667157105504,0.276451359287537,0.820918618413651
42.4958533333333,14.2942933333333,-1.146263,0.229175849080059,0.952946830194356,0.198420686978358
42.66755,14.5092125,-0.55854275,-0.491838495375772,-0.712318886176334,0.500696214148862
42.8070816666667,13.90409,2.39492033333333,0.905805803095202,-0.0734753977132318,0.4172735469808
42.6286163265306,13.6191408163265,4.20640448979592,0.937772129986861,-0.114065883557717,0.327982326395954
43.1953964285714,14.3584857142857,6.249535,0.964727360677417,0.0559362873427989,-0.257239676797123
42.03245,14.82675,-1.246985,0.453180903669745,-0.571287714451039,-0.684293369737265
42.2059055555556,16.2532555555556,0.548351722222222,0.0895915210514633,0.0747006296449247,0.993173285628614
42.7605947368421,15.2569684210526,2.40489578947368,0.362535398618021,-0.863672019028329,0.350198127202878
42.754175,14.91075,3.5517725,0.962232551021987,-0.2686055574525,-0.0442670561405569
43.2167153846154,15.3205923076923,6.43208461538461,0.963325883456767,0.254342889507181,0.0855157109505443
43.4056833333333,15.9763833333333,7.73184333333333,0.101226150293634,0.740225679557208,0.664694824578017
42.2299666666667,16.874,1.03116233333333,0.804794225420136,-0.592829899337594,-0.0293081077823403
43.02318,17.77304,1.981366,0.373915268468469,-0.727547838983792,-0.575205627576928
42.3461,17.3667,7.9254,-0.478647026476218,-0.291811961494185,-0.828095890084229
43.5920875,19.8121,1.1210755,0.638010177739042,0.532327695827799,0.556390364183333
43.46525,19.4241571428571,1.61297642857143,0.291792698294464,0.731401403063822,0.616367592284271
44.6205666666667,-19.3612333333333,1.55605333333333,-0.609431837388569,-0.694095219477284,0.38317706334797
44.1531,-20.2423,4.94748,-0.500901157099272,-0.773964290959256,-0.387398124849033
44.1523,-20.1212,6.35816,0.501589996762423,0.862783208492661,-0.0633451678581933
44.11252,-17.85118,1.1388298,-0.50118648249116,0.383228368652637,0.775853160867427
44.53576875,-18.68145,2.46006875,0.133268190952152,-0.642759599466831,0.754386960765879
44.60016,-18.7638,4.08666,-0.244781089992654,0.42661048571628,-0.870681176699559
45.4519333333333,-1.60979333333333,-2.01129666666667,-0.0190808754042842,-0.136658628010389,0.990434419628137
45.0532,-0.8565025,-1.88829,0.130794612163598,-0.181093433115062,0.974729674274655
44.71152,1.3476006,-1.93613,-0.0135057342001754,-0.0714204693806889,-0.997354857459047
44.8173666666667,3.53592,-1.87840333333333,0.0418765088928096,5.06025845329004e-08,0.999122794256516
45.67195,7.742455,-1.914175,-0.000869753615805007,-0.006803866312108,0.999976475189219
44.7086,9.21954,-1.87373,0.370159827646428,0.926062415936966,0.0734173261959054
44.89775,12.5583,-1.80167,-0.0085578472658468,-0.0441354850467714,0.998988899943268
44.4817571428571,12.4646142857143,2.99748,0.689036603495858,-0.275979766873002,0.670122173427812
44.131875,12.280575,3.395245,0.961174621191226,-0.0945154580174329,-0.259249254142914
44.5356727272727,14.4231090909091,-1.23015736363636,0.20792898286653,-0.782865590921658,0.586418796283828
45.0336333333333,14.3719333333333,0.723746333333333,0.667329946057839,0.729412906254728,0.150424583374769
44.4035529411765,13.7954470588235,1.77838,0.762113720477869,0.579080010038012,0.289566950865868
44.3893333333333,13.8032,4.19731666666667,0.252411436660778,0.961406606045306,-0.109479699009853
44.33112,14.06942,6.54621,-0.268381974791539,-0.477109287308586,-0.836861902329702
45.4818666666667,15.188425,0.0535896666666666,0.711414859697428,-0.290838085161577,0.639767227686161
45.26655,15.7817,2.03984833333333,0.636798946495044,0.558678000152587,0.531381213337758
45.2041,15.5095,3.398,0.506667386402685,-0.794363313691522,-0.335074746014821
44.1258,15.89575,7.14677,0.309155464442024,0.937600177012863,0.159150265067589
44.0811666666667,15.9323666666667,7.45588,0.258688184110349,0.479654798728804,0.838457928257656
44.22715,18.6903,1.23399,-0.433862673061468,-0.389087130593371,-0.812634226285464
44.2302153846154,18.3987384615385,1.97100384615385,0.734412552511094,-0.678660047561442,-0.00766436938308464
45.7625,16.9272,6.10455,-0.649736572012947,0.615029329826437,-0.446745241096207
44.1825,19.12835,1.23261,-0.115917789722718,-0.459429648176425,0.880617660737216
44.4454125,19.112825,2.07428125,0.779737696257152,-0.227258776674978,0.583406010819036
45.7885857142857,21.1384,0.45547,0.983748377723287,0.138217297099155,0.114608499289561
46.24915,-1.789685,-1.938415,-0.0496486370782436,-0.113791370553833,0.992263340461469
46.9679,-0.5248925,-1.96854,0.00612373303282301,0.0270361623830338,0.999615699065066
46.6584,3.0642,-1.95557,-0.000862403286567706,0.00525730162979934,0.999985808419372
47.687175,9.4865325,-1.83186,-0.0383998823587602,4.51920128421799e-05,-0.999262451507368
47.125675,12.351725,-1.810085,-0.0271270528788019,-0.156948053786621,0.987234233307731
46.8635222222222,14.4775,-1.14531277777778,0.295230497422569,0.845624320063047,0.444700419057068
46.7717571428571,14.7272428571429,-0.559876571428571,-0.40656966121191,-0.848839977598794,0.3378931828435
46.692925,14.924225,-1.345725,-0.13663219324647,-0.989406710169362,-0.0490510513699776
47.3441555555555,15.6546888888889,0.0362044444444445,0.232485883654985,0.216530516211567,0.94819030233931
46.1771714285714,15.2944857142857,1.45045142857143,-0.341233527072878,-0.297368136705258,-0.891701671678284
45.9763,15.6944,4.18278,0.513936242513128,-0.798521790595383,-0.313420625638822
46.756925,20.300225,1.1004985,-0.698341352996436,-0.695224708395965,-0.170240886777685
46.6130166666667,19.8254166666667,1.73419333333333,0.645969498781546,0.487604107962921,0.587337756781906
46.0832090909091,21.2510181818182,0.248868818181818,0.918360495467403,0.211714801205572,-0.334351377020272
48.1504666666667,-1.64151,-1.84975333333333,-0.0456892103139879,0.0729440165090578,0.996288947302142
48.5285,1.78226333333333,-1.86427666666667,0.0517280589049557,9.95546833588841e-05,0.998661202816446
48.90715,3.886955,-1.878825,-0.0349044674752964,0.00967489889863482,0.999343821955971
48.3067,7.99035,-1.85572,-0.0384138479058483,3.18540356019047e-05,-0.999261915252646
48.13855,9.924895,-1.84918,-0.0384052142883902,4.85748225720011e-05,-0.999262246437815
49.033725,12.59485,-1.755325,0.0976197375232788,-0.283273743642047,0.954057845735208
48.4507142857143,13.9100857142857,-1.49944857142857,-0.362622468393094,-0.272706803500484,0.891143055149423
48.8750333333333,14.9183666666667,-1.24903233333333,-0.880990103245414,0.139333081251228,-0.452153436847133
49.4852333333333,15.0767333333333,-0.518112666666667,0.100594920240228,-0.971688243496659,0.213781709863681
48.3886,20.829,1.68776,0.553281354367933,-0.830230507014588,-0.0678015348726484
48.6117,22.9784,2.03405,-0.368473974948144,-0.100823490933258,0.924154507353584
51.6506,12.7794,-1.62296,0.0314276807771989,-7.84032377501003e-05,0.999506025361478
50.6656,14.017225,-1.6357975,-0.0259887646078631,-0.252490541506259,0.967250283310392
51.265675,15.0773,-1.0727015,-0.0138330978022172,-0.995571907780529,-0.0929796851114932
50.9892055555556,16.1205722222222,0.206300111111111,0.426750272709786,-0.811448682689338,0.399293426071432
53.8205,-9.26413,-1.8794,0.264222228428446,0.133643836463039,-0.955157546679995
53.6322785714286,-5.65091071428571,-1.47112214285714,0.990984976154774,-0.0740759168623948,0.111631248208183
53.2457739130435,-3.94600608695652,-1.3252517826087,0.971661870837432,0.0747650872609645,0.224239582784935
53.1373347826087,-2.36891434782609,-1.6211052173913,0.664837886634145,-0.264152566404366,0.698723125535309
53.7733,2.04575,-1.8778,0.00144529463215156,-0.00552137810825188,0.999983712620967
52.3798,12.7414,-1.64589,0.0314228992944644,-7.71694268317386e-05,0.99950617579123
52.958025,13.72385,-1.4290565,0.0178325075834597,0.476861614766678,0.878797474982377
52.8450555555556,15.0007222222222,-1.06539233333333,-0.145701672823075,-0.983056506152587,0.111224674634846
52.98746,15.2818133333333,-0.3562554,0.112449864273417,-0.943857829615758,0.310624251303597
54.3367,-9.13304,-1.89743,0.620613876729814,0.152539805635998,-0.769135894174055
54.0752,-5.14172,-0.849273,-0.795387273503002,-0.293071327296695,-0.530535844468603
54.39407,-2.123906,-1.405499,0.727429324621044,0.676388842585036,-0.115519311406571
54.624,-1.14616,-1.90751,-0.0754080792679297,0.376552856288921,0.923320945284887
55.2375,12.5927,-1.79904666666667,0.00446921339093128,0.075989887584684,0.997098572417258
54.67298,13.70994,-1.603202,0.0705564797733255,-0.0747960157992309,0.99469962259094
54.0201,14.7707,-0.565596,0.185467465309627,-0.885679568154568,0.425644830657156
55.0025,15.05845,-1.21693716666667,0.749601943795757,0.173344766426353,-0.638786754566981
55.8102,15.14215,-0.3892805,-0.0506010219401044,0.749225206245587,0.660379532469681
55.33375,19.799,1.061831,-0.664593350248073,-0.0457106396527319,0.745805749661787
55.8068666666667,20.1787333333333,1.49308666666667,0.506231996602916,0.413816236174158,-0.756627575689704
55.2680583333333,21.8696583333333,0.740449166666667,0.200141009358749,0.976236469453088,-0.0831019378993686
55.500225,21.899675,1.4039825,0.868927708612011,-0.436919009101224,-0.232521862826454
54.40155,23.42635,2.37232,0.180004034866006,0.857568346402767,-0.481845492538824
54.83535,32.50705,2.767085,0.52784343389744,-0.101113399123865,0.843301482157465
55.9309,33.9946,1.1666,0.180546434971882,0.95652413540215,-0.229051442283417
55.2523642857143,33.7322928571429,2.30265,0.88614665679018,0.258876110653472,0.384353043428199
57.7136888888889,-3.98104,2.30703222222222,0.322724568050837,-0.551354415351681,-0.769322534343435
56.7271,-3.395865,4.361385,0.19102169614671,-0.980890280557334,0.0369454883495922
56.90515,-1.865565,-1.489265,-0.111624257044142,0.437248984694113,0.892386323642015
57.2550764705882,-2.19367,2.52840294117647,0.5146778290622,0.578932998413718,0.632410717508427
57.9005,-1.29235,3.43993,0.860101680311356,-0.448371774634034,-0.243285534377014
57.101,-2.33332333333333,6.00161666666667,0.602552532390057,-0.795856688125177,0.0595195570947443
57.3631666666667,-1.15396333333333,2.60476,-0.543338556931275,0.221276670841924,0.809827047889211
56.1887,4.13282,-1.7658,0.0602164584334593,-0.00476365545700906,-0.998173975677797
56.6209,10.16641,-1.77932,-0.983586909781701,-0.161237134675909,0.0809899827607517
56.41815,12.78785,-1.87147,0.0348851323488177,-0.166101664214269,0.985491382350072
57.554875,13.8318,-1.45738025,0.149147161424312,-0.611993009810986,0.776672183216034
57.60305,14.60685,2.41366,-0.146226508999966,-0.981423956562944,-0.124196721172582
57.88995,14.2734,4.04791,0.376706005031234,0.523918621238164,0.763938390247086
56.9961,15.0359272727273,-1.04851045454545,-0.36987412269646,-0.652913911367787,-0.660981510862401
56.7082666666667,15.1848111111111,-0.330412,0.993170510018191,-0.0544746406823453,-0.103173889878862
57.8527,14.9733,2.22251,-0.823283126053417,0.512017022736596,-0.245037676253398
57.825875,15.119575,4.753355,0.668496272974522,0.295034089795292,0.682691452178682
57.7419,17.1873,4.84781,-0.723131766967109,-0.568600006967433,0.392140892638936
57.8405,17.80312,6.119558,0.730461634706648,0.559217594575516,-0.392047805935533
57.1482333333333,20.5728333333333,0.930150833333333,-0.467986629416929,-0.76420889361963,0.443816720730127
56.3048666666667,20.6189,1.57056666666667,0.88813428737375,-0.359325119164381,0.286536116970661
57.28466,21.27638,1.039054,0.784466413892834,-0.473842034350432,0.400107700446719
56.5037,20.8769,1.37998,-0.137109676684212,0.973088926404264,-0.185199562280657
57.9398,22.863,1.81927,0.773188156551178,-0.534194647250689,0.341783781677397
56.2517142857143,34.1616285714286,2.04035428571429,0.118122728835272,0.991147774308947,0.0606061912260557
59.4798666666667,-13.8890666666667,-1.86902666666667,-0.430106715415115,-0.114225943490569,-0.895522555376753
59.61408,-13.55729,2.685627,0.566191187700716,0.32390579231944,0.757966078839923
59.6549,-13.4541666666667,3.40429333333333,-0.453897458582609,-0.8629824449028,0.221897266503746
59.66105,-11.78875,1.24965,0.207471181583178,-0.795681810510701,-0.569074832719646
59.48156,-12.1636866666667,1.88293533333333,0.995378997738494,-0.0344871196036488,0.0896174617056027
59.8931,-12.2348,3.558145,0.116353585118289,0.349208871235488,0.929792991735557
59.5664,-9.28956,-1.87191,0.912124182200538,0.384822967702194,-0.141211755083901
59.66625,-10.9464,2.6045875,0.731095130305415,-0.111998536827048,0.673020236094212
59.2403111111111,-7.93956555555556,-1.539593,0.883360321944895,0.463103917801071,-0.0721755009037675
59.4923285714286,-7.83924928571429,0.801206071428571,0.437856240085531,-0.892448374043304,0.108709763524833
59.39266,-7.825704,1.700862,0.320107984421341,-0.902093067574951,-0.289411429876087
59.0435,-6.60727,-1.85551,0.454096082955358,-0.0566738478355072,-0.889148369180374
58.7411222222222,-3.64960444444444,0.548796333333333,0.82937210165048,-0.224675750138635,-0.511529788285597
58.6601,-4.05082066666667,2.087594,0.980020146070127,0.195064747562895,-0.0388620323054616
58.7734,-5.02722,3.49179,0.150637907913556,0.540999778128841,0.827422178071129
58.8605,-4.112875,5.564255,0.717959819068779,-0.584541728101736,0.377947967729107
58.253375,-2.890595,-0.91495925,0.479378343785866,-0.539275866235661,-0.6923712469513
58.54175,-2.84118772727273,0.511913409090909,0.454596898422674,-0.861328842346655,-0.226835370447946
58.6496407407407,-2.38636333333333,2.24680111111111,0.693203735753021,-0.702702835054585,0.160241400219495
58.7368333333333,-1.89119833333333,4.04067583333333,0.0479654054816792,-0.781673218725965,0.621841056061409
59.70316,-2.332722,6.950342,0.287827247071707,-0.756492705991826,-0.587259960855742
59.5486,-2.8723325,7.46986,-0.0561037466358895,-0.998419863111535,-0.00318536618918695
58.3438,-0.98261525,3.057425,0.769524717311113,-0.613517671124822,-0.177278810535342
58.8587142857143,-0.850071714285714,4.00050428571429,0.873323500768313,-0.429546578165095,0.229773367021587
59.2580666666667,12.5515,2.75797,-0.0806781153712555,-0.539355384664751,0.838204516053977
58.941275,12.68935,3.71337,0.861649675520573,0.283552761612148,0.420901019311447
59.04915,13.8291166666667,-1.61462333333333,0.221925099148207,-0.231200967456555,0.94725675664796
59.2433923076923,13.7771730769231,2.78453153846154,0.32850220836941,-0.491655103877833,0.806449972364869
59.2519362068965,13.772325862069,4.33446051724138,0.995607468137919,-0.0518058939175167,0.0779866574704311
59.5975625,13.9783875,5.7128125,0.49931793866643,-0.847697421255989,-0.179138711957671
59.60676,15.11416,-1.1651952,0.896625919425323,-0.376043564673473,-0.233780234584452
59.6047266666667,16.3827,0.2771516,0.896700052871525,0.442534388730782,0.00960884857191917
59.0614714285714,15.7331142857143,2.361245,0.73692785417036,-0.300155558426139,0.605676463546142
59.0749083333333,15.5358472222222,4.12867388888889,0.949337644601089,-0.20102533713484,0.241550927079738
58.903315,15.678575,5.5780005,0.919417338000131,-0.0224023708593983,0.392644740655762
59.7799,16.982,1.251905,0.306402743480038,-0.81737032652818,0.487876119623745
59.3221307692308,17.2013846153846,2.27778461538462,0.966233988345411,-0.0410855314451652,0.254369532122045
59.4027,18.1558333333333,6.54713555555556,0.59285111008567,-0.802096296998628,0.0718963949810959
59.232,20.01475,1.033395,-0.478642016684218,-0.658331772171131,0.58094844660648
59.72026,19.30402,1.792558,-0.724237113165242,0.61144033525975,-0.318780991170305
59.6212944444444,22.1556666666667,-0.0230427222222222,0.999759988673265,0.0171628637928108,-0.013616209254483
59.4251,22.8387,0.207267,0.959983340314903,0.12166786278356,0.252247730383293
58.9324,24.15095,1.74719,0.602341199572161,-0.388024720537629,0.697582895109725
61.6396857142857,-24.4647714285714,2.48919142857143,0.691849456879974,-0.704795397240955,0.156868661761518
61.7743,-15.6555,1.72525,0.891471810904055,0.409626024217169,0.193609221493918
60.7400545454545,-13.5050090909091,-1.444277,0.678011934186155,-0.732888925686093,0.0563350664136779
61.1555636363636,-13.5304272727273,0.0392698181818182,0.992585547957046,0.0127540452981893,-0.120877062817317
60.907875,-14.2524083333333,2.44382833333333,0.681802106732293,-0.526095172579786,0.508300852491565
61.3851666666667,-14.1861666666667,3.79095,0.0463805836213612,0.83337256862168,0.550762202163371
60.3471166666667,-12.72425,-1.96669166666667,0.902710673362022,-0.386460872490271,0.189106938615017
60.8482285714286,-12.7865642857143,0.544907357142857,0.911976259867504,-0.206858356994186,0.354272383315077
60.9042636363636,-12.0471681818182,2.07797636363636,0.876423185762108,-0.395857090548195,0.274188919034514
60.6907590909091,-11.8946818181818,4.00423136363636,0.735099897539073,-0.328718236979693,0.592935461340446
61.8008,-12.524,5.40679,-0.420008840386709,0.735375469666568,0.531803998301711
60.0636,-10.70275,-1.88751,-0.147947416879299,0.00902456554546783,-0.988954053055782
61.0669090909091,-10.8383909090909,2.13790272727273,-0.724316536796491,0.442034063800462,-0.529123275771522
60.151,-7.45084,-1.89031,-0.185503219357992,0.982376062286917,-0.0229309366026053
60.8524,-3.76937,5.75228,0.244815085159836,-0.821473175243166,0.515021743651755
60.167,-1.73574,-1.68062,-0.192569697589119,0.852260994168593,0.486382677928806
60.0782,-1.866195,3.04349,-0.131542445018416,-0.0181311848745851,0.991144714607116
60.2887,-2.0592575,3.84559,0.19255729979869,0.733320895874906,0.652044592008447
60.5494076923077,-1.72676153846154,6.8068,0.652382779406394,0.509664218192507,0.560926995096696
60.86593,-2.333476,7.753967,0.419872300700174,-0.224172736229121,0.879462242189107
60.5725206896552,-0.190356817241379,3.99243172413793,0.507390128900089,-0.638317502598246,0.578883427791372
60.63496,-0.9267068,6.288998,-0.0983776985683512,0.979567248351499,0.175413324412562
60.8415,12.5881,1.06192,0.723212762290885,0.312564448667055,-0.615846381729281
61.2505384615385,12.6107923076923,2.25102076923077,0.855599148238827,0.133652468366046,0.500087107644916
60.2649,12.39982,3.453294,0.513903989241458,0.0773936400464175,0.854349409973508
60.8027,13.1507,-1.698235,0.0242677864253511,-0.0558283191368594,0.998145416922988
61.1192,13.95616,1.1084986,0.933283265395359,-0.345644509946051,0.0975306068735818
60.6298488372093,13.9210558139535,2.0702876744186,0.965456908872737,0.100415219211031,0.240436563069556
60.3648,13.9582333333333,4.22099416666667,0.956940615630922,-0.258480225812738,0.132108406317339
60.1626,14.1133,5.89883,0.414680758140233,-0.900212716125588,-0.132879398531276
61.057275,15.079675,-1.065915,-0.0633672681022056,-0.992421529167298,0.10528104187604
60.46648,15.7164,0.2480632,0.0575936736092476,-0.944441146822118,0.323595254831577
60.4998733333333,15.8751466666667,2.096566,0.965362626327028,-0.037998572073664,0.258130021910173
60.8696,15.6848333333333,3.968835,0.283585507529682,0.470274902958882,0.835715726527954
61.2636190476191,17.9455619047619,2.24375857142857,0.525776087629875,-0.0795596283284185,0.846894191275903
61.19005,17.00435,3.52759,-0.0348963486320329,-0.848985149674379,-0.527263179526623
60.5439555555555,17.5429944444444,6.50520333333333,-0.623395717032339,0.780147656227378,-0.0524157845373341
60.26875,19.77515,0.68172375,-0.258684392635564,-0.800595470281182,-0.540489850017576
61.9237,19.0472,1.29668,-0.471824517204981,-0.607129248244823,-0.639355691997783
60.3242,35.9467,1.25859,0.851495423662456,0.0472820270718843,-0.522225960095693
60.6400916666667,35.9746583333333,2.14617,0.983829382826997,0.0557574724179131,-0.170208254076635
61.0073,37.0978,2.12147,0.851691003443819,-0.294988987605813,-0.433132695422729
63.3499,-27.2656,1.98847,-0.316280871706188,-0.717473963335034,0.620642829757254
62.9371,-25.2143,-1.75638,0.677189223341634,-0.218553327823357,-0.702601735471305
62.7665833333333,-26.0905,0.838933666666667,0.706739017256037,-0.683156636920125,0.18389391213402
62.8915,-26.4553631578947,1.92842894736842,0.811866154921839,-0.580309474488936,0.0641425000354978
63.1315333333333,-25.7398,3.45464,0.411409059990518,-0.883820535022876,-0.222719211631139
63.1601,-24.3734714285714,-1.54049071428571,0.932118529340065,-0.360969821405406,-0.0292546627986833
63.2018952380952,-24.5315380952381,0.459036904761905,0.895861613650525,0.0275297827532955,-0.443479515027507
62.9876384615385,-24.1465128205128,2.11554769230769,0.996729389049747,-0.061726117254505,-0.0521575637199551
63.3836923076923,-24.2588615384615,3.67945769230769,0.973961598974147,-0.213504233872754,-0.0762544808003453
63.4651285714286,-22.9387928571429,2.38977,0.571814837371046,-0.754840934857898,-0.321314417393896
63.3002333333333,-23.0372333333333,3.31548,0.424606891097013,-0.904209375168938,0.0459825389634773
62.0624,-15.85575,1.29981,0.891471810904055,0.409626024217169,0.193609221493919
62.53636,-14.0408,3.978442,0.207577734310442,-0.968395597751733,-0.138280332924125
62.3288,-12.5032,-1.95865,-0.0903874620667546,0.715339519652213,0.692906543716302
62.8422333333333,-11.3558333333333,2.26743,-0.138649578340024,-0.931290295854853,0.336860029200131
62.3182142857143,-11.8524571428571,4.76379714285714,0.917206040774582,-0.398411673300782,-0.0011033332621762
62.0069,-12.0571,5.42486,-0.533702754911002,-0.163265233374479,0.829762516007794
62.0896,-10.8885,2.81972,-0.485028331669251,0.752100191115503,0.446198184669287
62.1947,-1.30486,-1.95455,-0.274978541725974,0.905376658178707,0.32354274588594
63.1367,13.4439333333333,-1.68963,-0.0158564753728559,-0.296316595599015,0.954958139062315
62.09455,13.87815,2.168195,0.710982433077842,-0.495717766051484,0.498766354394157
62.0074,13.228,4.33578,-0.239904631140075,-0.608051635392538,0.756781987532741
62.4343,15.0131857142857,-1.33935571428571,-0.138731827111806,-0.988770034687023,-0.0555634650759282
63.2367,15.1714,0.882894,0.59770751947895,-0.366760396356574,0.712904294293904
62.5231666666667,15.7447333333333,1.78167,-0.675309885694608,-0.606920020407071,0.419052081622578
62.3256,15.9148,5.67167,0.481398507294139,0.867453905199147,-0.125615283822166
62.5663,18.7062,1.09177,-0.524306945947546,-0.619487423057334,-0.584241011146035
62.0976,18.0460666666667,2.23981,-0.431883127494329,-0.603259431500688,-0.670488644565427
62.3389666666667,19.1722333333333,0.579638,0.487533693839218,0.852743758730411,0.18745393918992
62.4642,18.9449,1.30802,-0.524306945947546,-0.619487423057334,-0.584241011146035
62.77905,33.8944,2.4059425,0.00277218182692868,0.492435864221667,-0.870344319586322
62.5599,36.539,1.08794,0.617480815662822,0.169100215905511,0.768194349933066
63.1126,36.50265,1.76015,0.742888186058223,0.370933297008885,0.557248267996627
62.8535,37.4484,-0.874157,-0.676398254630748,-0.73218589065632,0.0799326132207002
62.8853941176471,37.3999411764706,0.450118117647059,0.846578274168112,0.530335387651583,-0.0452725337372065
62.4665,36.8719,2.17313,0.882705959223371,0.134903861112153,-0.450145685093816
65.1824,-35.6013,-1.81545,-0.488568488443529,0.508143812640926,0.709288867651783
65.4135,-36.32836,2.004282,0.0158888151483105,-0.973604782152492,-0.227686788643922
65.69155,-36.98135,4.120195,-0.186003770000717,0.91314900552555,0.362714062662615
65.6203333333333,-34.8569,-1.98082333333333,-0.488568488443529,0.508143812640926,0.709288867651783
65.9177,-34.7457,2.06631,0.785089859783996,0.168742321698788,0.595952968724923
64.7600666666667,-29.6964333333333,-1.58033333333333,0.891178070384361,-0.444844191975001,0.0889679252995957
65.74325,-27.35155,0.802223,0.979850658259824,-0.0580871610029015,0.191098323473582
64.0151,-27.2178,1.78605,-0.612891379768029,-0.7180606859989,-0.329777209383593
65.7944,-26.61904,0.825787,0.815653829609899,-0.325914295505634,0.478004918622991
65.5128,-25.8486,1.71459,0.572554981172884,0.398790201595022,-0.716342912749138
64.6501866666667,-23.7636,0.706361066666667,0.336198907532863,-0.809432393637686,0.48144521464407
64.6172933333333,-23.8428866666667,2.297674,0.0481115877353799,-0.721252206422227,-0.690999659809359
64.5787681818182,-24.0439318181818,4.06046318181818,0.641572814434511,-0.757029894707304,-0.123652991464134
65.4395172413793,-22.2372103448276,0.692694275862069,0.886892624232972,0.191131489453802,0.420583198452249
65.03904,-22.42682,2.14747844444444,0.801054246884972,-0.59571403496282,-0.058624927256806
64.953725,-23.06835,3.6845275,0.503908984855268,0.161465791972205,0.848530808518419
65.8195,-21.1604,1.14842,0.292032550213011,-0.582958085079219,-0.758206344379191
64.75804,13.92414,-1.628128,-0.0567654410251943,-0.302107713703447,0.951582163570803
65.049,15.2535,-1.1356635,0.09444487257381,-0.782259494385319,0.615751775871204
65.7787,15.5073,-0.688776,-0.0266528502773807,-0.836168992297457,0.547823915042367
64.3637,16.7899,1.57274,0.366576598554397,-0.499467151666593,0.784954878829573
64.5302,16.8308,1.12618,0.366576598554397,-0.499467151666593,0.784954878829573
64.65565,17.0005,1.354095,0.0879402697131421,0.104562821988852,0.990622594745601
64.6570166666667,19.4232666666667,0.9400135,0.374055622542377,-0.818575741017504,-0.43590841636986
64.9241666666667,19.9738333333333,1.43606,0.983067407813046,0.102596273695829,0.15183041961171
64.10605,21.6631,0.559202166666667,0.372891802786589,-0.92463565401619,-0.077463609111769
64.3214666666667,21.1783,1.49617,-0.00172318944226019,-0.928027394970514,-0.372507966092522
64.0664,23.9922,1.78827,0.98236289756911,-0.0555551362347993,0.178540651722669
64.136,35.6414,2.90369,-0.209095985660189,0.18468663021614,0.960296681968755
64.6212,37.7639,2.24839,0.646055789566688,-0.39358404894203,-0.653990453436258
66.1274333333333,-35.4361666666667,-1.22736266666667,0.36019672294131,-0.82715202250165,0.431367421641657
66.3167875,-35.448175,0.115637375,0.967227474153914,-0.246890087354746,-0.0592983811566989
66.60725,-35.28915,1.7393375,0.66874667133205,0.533063467352685,-0.518286821515111
67.0508,-36.70095,3.972665,-0.0785211432408968,0.955802080943717,0.283331629240017
66.6845,-35.05654,0.464808,0.66221865687789,-0.65621820037193,-0.361723822803349
66.5977454545455,-34.0573,1.72798363636364,0.733352598650147,-0.198148491820665,0.650331562545039
66.6556,-32.9273,1.85813,0.798372688238707,-0.100116974030835,0.593782487267358
66.2820714285714,-26.3328,0.461773857142857,0.730063433522136,-0.109412057427987,0.674563847773689
66.3599125,-24.0505375,0.72278325,0.79289947811796,-0.0372369220156322,0.608213637827259
66.0592,-23.8493,1.38288,-0.733493746092673,0.247753072009428,-0.632933914206553
66.05382,-21.80958,0.6452574,0.988897758209502,-0.146273632180838,0.026177248458286
66.264,-21.965475,2.3151375,0.693512463747782,-0.709752778628685,-0.123658626287621
66.0797,-22.883,3.69304,0.00660544503037882,-0.585795044764085,0.810432312797185
66.0248,-20.9392,0.921586,0.76706613601307,-0.57390484247805,0.286780011092512
67.69675,12.6237,1.063201,-0.657553701582968,0.724508975052722,-0.206663675092147
67.72545,12.5888666666667,2.20796,0.885361599215915,-0.423597406350763,0.191572638878167
67.6837666666667,12.6697666666667,3.70513,0.438375932867116,0.312336210834606,0.842776739643642
66.98535,13.3928,-1.75319,0.0269429155736157,-0.237708365208109,0.970962827512197
67.927,12.9435,1.18561,-0.623614661251426,0.757116521380763,-0.194626121896734
67.56272,13.26375,2.335919,0.844593547374392,-0.296906229348737,0.445542849462828
67.456875,13.50785625,3.844675,0.962127899830552,-0.126102732406262,0.241677481878899
66.5456,15.38768,-1.1625378,-0.031317801835672,0.968769538367704,0.245977187598784
66.8492,15.4825,-0.69999,-0.113962478894612,-0.876678673898753,0.467383200527488
66.5486,15.2808,1.740225,-0.150291830332326,0.817922102888527,-0.55535195987929
67.6274,17.0717,1.18026,-0.0619179461938564,-0.875543661819049,0.479154947994513
67.35815,17.4292,1.64487,-0.0619179461938564,-0.875543661819049,0.479154947994513
67.8752,17.35,6.89417,0.974942252450521,-0.10730199336118,0.194868895946534
66.685,19.0837,1.16369,0.325764153299951,0.120937399341923,-0.93768430821102
67.9737,-37.0412,4.26515,-0.0785211432408966,0.955802080943717,0.283331629240017
68.07,12.4942,2.6744,0.874666979563507,-0.0865876728267593,0.47692792933073
68.31505,12.6818,3.94215,0.944780140319605,0.318878174083943,-0.0755459896391433
69.182175,13.3355,-1.810835,0.0634145904321192,-0.23051313782428,0.971000660664415
68.6111,13.3537,1.19754,0.601608661874902,-0.597254112183636,0.530428641229739
68.5473894736842,13.5383736842105,2.30596368421053,0.588303757317211,-0.120570024745612,0.799600874348756
68.3871636363636,13.7387045454545,4.63020454545454,0.853996399433606,-0.0873771139376528,0.512889256774174
69.39425,13.95975,5.46217,0.425134013515484,-0.728871816160335,0.5366627862628
69.1115,15.2717833333333,-1.20648583333333,0.0726109100226767,-0.996966779294951,-0.0280160084225373
68.9895615384615,16.5720307692308,0.407743153846154,0.981058338267619,-0.167973940795148,0.09648467302803
69.0882,14.8655,1.92966,-0.0699985844504043,-0.727875242309502,-0.682127429303223
68.9274,15.58305,6.26903,0.179969283893679,-0.266072384633874,0.947003982562925
68.60588,16.8578,0.525114,-0.351512734632672,-0.918796399667035,0.179588344137237
68.9207,17.7890666666667,1.60400666666667,-0.107564060520085,-0.754321111659969,0.64763387294713
68.822,17.7237166666667,6.42356,0.482346780686147,-0.568227462107133,0.666677684094043
69.5392,19.0207,1.942,0.600178507715442,-0.432273815034154,0.67299710824957
68.94285,37.8925,2.040075,-0.280845280488774,0.941056552322563,0.188516560964689
71.4223,12.74235,2.118915,-0.299815044397588,0.940979365744917,0.157062956788563
71.60865,13.2928,-1.87455,0.00297676008203457,-0.261090077811251,0.965309851896234
71.3259,13.7836333333333,1.161889,0.597998103821414,-0.801492536728481,-0.00282513619824672
70.93644,13.74658,1.879982,-0.950133744106576,0.306222311576934,0.0589386477830889
71.4038,13.2992,4.842896,0.43275338642692,-0.523208439340055,0.734150826151804
71.3025125,14.531475,6.11292375,0.733201098907535,0.19347376629595,0.651908007556314
70.47246,15.33296,-0.885222,-0.172521192593771,-0.569401222727247,0.803752875990337
70.8617875,15.1777875,6.38749375,0.75376747810739,0.538740108495206,-0.376289362653528
70.7765,19.3532,0.988076,0.560836789715639,-0.586300019716209,0.584563411600683
71.6175666666667,22.2320333333333,1.0827,0.557426375297261,0.418839628980715,0.716832756867496
71.4175,21.4546,1.66134666666667,-0.0874411426763503,-0.446618985232986,-0.890441198842973
71.63495,38.94915,0.8717615,0.121861474205917,0.992543157410142,0.00280388706366053
72.483,12.8654,-2.02456,0.0153866682609179,-0.254749348710419,0.966884698281779
72.04375,13.14075,0.8803015,0.553281038939878,-0.831616024685504,0.0479048999152334
72.52435,13.087125,2.3439725,0.489706028898158,0.103432774615476,-0.865730712402038
72.6974,13.19735,3.937365,0.622486254092634,0.445276516646663,0.643614548614879
73.0237833333333,15.2966166666667,-1.146949,-0.427556013164148,-0.888470395277155,0.166781930445824
72.7716,16.2551,1.5242,0.857082701434156,-0.285811339454454,0.428627018678921
72.2552333333333,17.0349333333333,1.00873466666667,0.859293098605083,0.500670183087177,-0.104617104037189
73.74215,21.80805,0.32167525,0.773573233437796,-0.37491191969054,-0.510906552103756
72.2777,20.9935,1.5136,-0.341119596158742,-0.426462735947481,-0.837715319165578
72.7340333333333,38.7278666666667,-1.012848,0.0363017993529232,0.997049787703067,-0.0676306158851845
72.8743,38.6620666666667,0.170033666666667,0.281434459147365,0.881951978698649,0.37809436979935
72.60785,38.859425,-0.1898395,-0.0762125902239522,-0.973507630493473,0.215579531640506
72.55055,39.04515,1.64164,-0.114782744303213,-0.980097283774226,0.161969861235376
75.08545,-4.465735,-1.31062,-0.125275155969896,-0.121784260724867,-0.984619078190351
74.5115166666667,-1.77646916666667,-1.733645,-0.532018383486666,0.19748263089688,0.823381473028317
75.65175,-1.33481,2.11333,0.804048439554801,0.493413405842299,-0.331736820061614
74.6075,-0.978116,-2.08398,0.372720368433962,-0.409156298642288,-0.832868927404423
74.3998,13.8088,-1.81821,0.00344365327758257,-0.46200751278212,0.886869324864144
74.5444333333333,15.2992666666667,-1.21307533333333,0.0863673543026506,-0.916729742214529,0.390060584845539
74.0054,21.80705,0.5165125,0.773573233437796,-0.37491191969054,-0.510906552103756
75.03975,37.46895,1.43809,-0.56317617039911,-0.819063454538348,0.109396793985475
77.5837,-16.7586,0.812415,0.751188078446765,-0.164401006883726,0.63928771279845
77.8756,-17.1441,1.3592,0.768621668943221,0.279531369917703,0.575398073739277
76.99094,-4.519224,2.041602,0.573156552732319,-0.135227127900673,0.808211104810952
76.73903125,-1.826764375,2.360553125,0.936977134491011,-0.154098157603537,0.313572331789986
76.977,-1.24549,3.4955,0.906331678093798,0.369450110273207,-0.205108520795201
76.9068733333333,-0.33793076,2.776444,0.845332286105588,-0.529885033153391,0.0680821394165142
76.9660846153846,-0.377244184615385,3.86933923076923,0.906432348143453,-0.0374498181019162,0.420687424774356
76.9563,0.874801,3.22543,-0.590513236091411,0.731170501100869,0.341590129132495
76.8879666666667,13.5411,-1.87903666666667,0.0466081825272437,-0.298461820313883,0.953282864178535
77.4402,13.8707666666667,4.29921444444444,0.935963905802267,0.250530271617962,0.247398767253185
77.9228,13.1252,5.72225,0.788889217903521,-0.293014916721957,-0.540181506952983
77.40495,15.5385,-1.21652,-0.0199918472644333,-0.48012339596029,0.87697311857007
77.538,16.5698,7.05639,-0.571121338676398,-0.591929340270082,0.568717920093876
77.6965,20.2651,1.355955,0.575207900085786,-0.106888480735163,0.810993664811895
78.872975,-17.8518875,0.54991025,0.895870366225354,0.285184782305307,-0.340713848941783
78.6964,-16.19325,0.962113166666667,0.899318451041897,0.430736204705788,0.0754496227376696
78.285275,-15.7875,1.366385,0.177153386292205,0.431334935798853,0.88462808619476
78.6991,-15.06605,0.8230285,0.240363352107076,-0.963905672666221,0.114504642550987
79.061525,-14.8973,1.9992075,0.493463713181701,-0.61735648787273,0.612670001431746
79.7475333333334,-13.9529666666667,4.17929,0.859196110214271,-0.507085606310761,0.0681632750468577
79.4155,-4.880865,1.66307,0.392488068585497,0.820184853633863,-0.416233013932852
78.686575,-2.5088,-1.0316555,0.858065644423467,-0.208184979542509,-0.469449000587951
78.6087333333333,-2.48189458333333,0.354985166666667,0.979304724493166,0.00270309885978334,-0.202373293302051
78.7013357142857,-2.40033785714286,2.001775,0.809019862557057,-0.0182003308872983,0.587499455271027
79.6464,-1.04408,-1.94652,-0.296488918147933,-0.46460108944583,-0.834410060522532
78.7553875,-0.1885405,2.57936375,0.768962436431814,-0.26006027216889,0.584008070317775
78.2282,0.11995155,3.68895,-0.759282546455037,-0.611441511980665,-0.222776327457728
79.1697,-0.52041,6.36984,0.14527625931501,-0.889760309604863,-0.432690882653305
78.97785,0.897499,2.620355,0.910803498343155,-0.409238356641476,-0.0544146566584362
79.1509,1.0557045,3.455685,0.0644899096763221,-0.188393173260114,-0.979974011807928
78.7999,12.6286,5.23384,0.127885410588743,-0.825630338430229,-0.549526947494055
79.5225,13.793,-1.80424,0.046877809896592,-0.357216570069686,0.93284446345945
78.7981307692308,13.5928153846154,2.49394615384615,0.778071683164866,-0.345051175087644,0.524922987139664
78.7640470588235,13.3994176470588,4.28789294117647,0.748999923429531,-0.356315990463092,0.558603642704613
78.9787,14.16009,6.232098,0.993929634848742,0.0831590651167965,0.0720309021069897
78.927,15.5751,-1.00933466666667,-0.0548353753910754,-0.543986207442899,0.837300476362943
78.9349625,15.0759125,6.66438,0.883258137766844,-0.169761626863086,-0.437076711932179
79.2545333333333,15.4224666666667,7.58503666666667,0.979360767046644,-0.177936775542387,-0.0958696608911695
78.2699692307692,17.1324307692308,0.462553769230769,0.976849186372892,0.202199920077232,-0.069863147677297
78.296,17.004,1.366545,0.958781626721356,-0.281961515837289,-0.035149620883981
79.47116,17.38678,7.68073,-0.27490242092447,-0.210456666721551,0.938155984046533
78.4115428571429,20.3092428571429,0.898392714285714,-0.0848693593787603,0.5219276547085,0.848757159079747
78.4527,19.478,1.64311,0.698036473342229,0.615858188412565,0.365326940765579
78.2573,21.0685,1.09253,-0.442960890010603,0.208541603809306,-0.871949568152687
79.089925,21.2939,1.5883175,0.239275267668621,0.938673093710953,-0.248274383344753
81.13575,-17.2715,-2.123785,-0.533469818468539,-0.170575905691929,0.828440591219746
81.07735,-17.8462,0.1413125,0.864274009826577,-0.176619444937099,0.470994700191415
81.4933,-16.8837857142857,-1.66487757142857,0.785243758834378,0.442877542990583,0.432725919175499
81.6478,-16.797775,-0.2135645,0.507163150338885,0.806416109798353,-0.304102937828669
80.3119,-15.3773,1.68221,0.993497292330357,-0.0730424187833338,0.0873380512178354
80.6156368421053,-14.0741105263158,2.20680578947368,0.996399523121217,0.000943541680033249,0.0847767659969914
80.4117428571429,-13.6811,3.69058857142857,0.71966713926918,-0.367505693143105,0.589082994291569
80.9408333333333,-12.7688333333333,2.73204666666667,-0.679062332946428,-0.712629777073193,-0.176162279736516
81.1784,-12.9207333333333,3.68586666666667,0.767146480948699,-0.563483699744041,-0.306549175322319
81.5821,-1.50016,5.41868,0.858593804991981,0.502670736009304,0.100691654019866
81.4675,-1.50243,8.27517,0.512102198194015,0.845702994062259,-0.150125895297875
80.6234,-0.272884775,2.6055925,-0.341533123085191,-0.845876062808661,-0.409693558898592
80.5849,0.358544,4.561436,-0.640735763170633,-0.11786391639784,-0.75866051630852
80.5864,0.10894975,5.9891425,0.507385811456165,0.288329890860638,-0.812050190794425
81.601,-0.859871,8.28873,0.374750927366376,-0.700149506238551,-0.607743705316603
80.8679,1.06143,4.52122,0.15902794787358,-0.950622084952995,0.266510343879441
81.4369,1.0701,5.98035,-0.415429489028346,0.904441409384444,0.0969746185160157
81.2013,14.4104,-1.70086,0.18796103809197,-0.639987678598966,0.745041219934102
80.6677,14.059,0.84475,-0.129417266047307,0.987686347145095,0.0879025079961856
80.5618333333333,13.8266666666667,2.06014666666667,0.0392503877816156,0.994312917303155,0.0990011593017045
81.170225,13.12395,4.1820075,-0.33614559551233,-0.905786572396561,0.25798609242312
80.36255,14.34895,5.759915,0.422597021540466,-0.434445996846588,0.795404572031806
80.908,14.6352,7.36323,0.186891092173004,0.13500556067137,-0.973059719777872
81.059,15.445,-1.13181,0.117045934568986,-0.533566393575684,0.837619933411037
80.302,15.1719,6.74309,-0.223633673047255,-0.877156571398862,0.424952149695923
80.3514,15.8487,7.31251,-0.36314612709081,0.676486511481501,-0.640695629891866
82.7088875,-35.7883875,-1.58635,-0.508196997384016,0.0913520720409386,0.856382280750657
83.6299,-27.2667,3.21145,-0.68089681410144,-0.0865096046050465,-0.727252099933433
83.688475,-27.840025,3.652065,0.871222981115572,-0.444187236867401,-0.208969413503982
83.71408,-22.68092,-1.57786,-0.751430078018169,-0.219547811162543,0.622215072513793
82.2544,-19.2085,-2.29732,-0.532436602482437,-0.376076272491266,0.758338909463331
81.9618,-16.695,0.858275,0.804472148309855,-0.580274010919105,-0.126911917665684
83.45915,-14.33925,0.873997833333333,-0.475860931751093,0.336017721374794,0.812802844824668
83.0666384615385,-13.8847076923077,2.11950615384615,0.960619579393831,-0.274654466742103,0.0421301267958053
83.26955,-13.4234,3.78253,0.379728217515555,-0.60015607785452,0.704002246471373
82.91728,-12.98772,2.203416,0.878764227206136,0.183020354630311,0.440768627256748
82.3103,-0.216548,7.20122,0.386171094115822,-0.675224436710146,-0.628445579297727
82.03,-0.540047,8.04311,0.316369883590766,-0.680873552308846,-0.660546215281791
82.0353,1.07779333333333,5.83284666666667,-0.355510279927687,0.927165330558407,0.118223900613443
82.37595,15.660525,-1.437914,0.473035999138453,-0.643346145399924,0.601949068209384
82.5451875,22.177825,0.397282875,0.949196869299259,-0.222292282673362,-0.222736266414681
82.2369,41.5108,-1.4323,-0.450400229728108,0.892822281954314,0.00282947110923424
82.3039333333333,41.53825,0.143200833333333,0.44799442546707,-0.894034711946026,0.00171131119791213
84.7589,-34.6398,-1.77367,0.395945962332146,-0.889171003986338,-0.229350649841675
84.7909,-29.2372,-1.77518,0.350377679986325,0.929676045476502,-0.113745029933505
84.94855,-29.3467,-0.150129,0.796739238365383,0.514860825848959,0.316425214000208
85.9275,-30.1562,5.70463,0.877554219822385,-0.446792400336753,0.173997535250496
84.457475,-29.060475,-1.7661575,0.336616420729988,-0.0820444398631982,0.93806081635599
84.72388,-28.63866,0.0584732,0.696179568192603,0.00678225101783907,0.717835642680337
85.1527111111111,-27.5912333333333,2.57561444444444,0.131237217734274,-0.957269290228852,0.257705837470004
85.29715,-27.9117583333333,4.2444475,0.631847008617525,0.715723163102153,0.297505817590404
85.9396,-27.5233,5.70628,0.779443525100037,-0.369548926723502,0.505866960709172
84.79955,-26.9126,3.552885,-0.0577757959085471,0.830117815460277,0.554586665781455
84.2533,-23.8328,-1.47029,-0.751430078018169,-0.219547811162543,0.622215072513793
84.8417285714286,-15.6994857142857,0.760746142857143,0.742654242059905,-0.0353823810773881,0.668739683180027
84.6861,-15.5267,2.0696,0.721882848497347,0.691345324286546,-0.0304433183553738
84.52296,-13.921,0.8845024,0.588936373248468,-0.788305463530924,0.178124800160553
84.1491,-13.7219,1.46879,-0.625877419585169,0.738985944803689,0.249353622464182
83.9691,-13.0216,2.93221,0.675210694784412,-0.0506481435897152,-0.735884014773842
85.5441,16.0876,-1.641785,0.294681859284031,-0.459172815079416,-0.838047091577169
87.6218,-41.384,-1.52681,0.917736863153539,0.370063304177642,-0.144264343863022
87.5432,-40.8732,0.305076,0.917736863153539,0.370063304177643,-0.144264343863022
86.5229,-40.4036,1.50777,0.746044224085223,0.32952876843752,-0.578643937565347
86.874,-39.1834,0.605618,0.746044224085223,0.32952876843752,-0.578643937565347
87.3045,-38.4688,1.52188,-0.673656991896903,-0.163802764603413,0.720662827941538
86.3036,-29.9851,4.97367,0.996984787787113,0.0224839901978726,0.0742684529653624
86.870425,-29.915325,5.92073,0.661315774263669,-0.743942458195648,-0.0959742965791386
86.32855,-27.8604,2.938125,0.272602315942062,0.902281567397736,0.334029864648821
86.5965111111111,-27.5165444444444,4.67005666666667,-0.646507379351927,0.691474883981151,-0.322320792482828
86.92525,-28.12115,5.6195625,0.316257242316955,-0.934421620412035,-0.163821830012429
87.00405,-26.6686,3.03728,-0.343396070873229,0.729678538529188,0.591310721126157
86.7475,-27.01475,5.000295,-0.0466067769829168,0.79638531843912,0.602991072001805
86.2439,-26.8669,5.42443,0.659293554900942,-0.489547163320435,0.570679930741387
87.8324,-21.2372,-1.83958,0.293646166077959,-0.942914581434429,-0.157111493106177
87.621,-21.14605,-1.83332,0.293646166077959,-0.942914581434429,-0.157111493106177
87.4784,14.5382333333333,0.916221,0.57265044343538,0.772638612381729,-0.274045697448617
86.4469,14.54355,1.65997,-0.368476876372912,0.812311559504177,-0.452078225392856
86.5243555555556,13.5964666666667,3.89487,0.899980798522406,0.423285858997557,-0.104228805345127
87.8675,14.4406,6.14425,0.975714542267866,0.0833875781042476,-0.202552817370969
87.6796,16.3488,-0.918169,0.158560893406135,0.541580292065305,-0.825559949566782
87.4172,14.882,1.22061,0.719621793226756,-0.176941819444234,-0.671443271799541
87.2053,16.4918,8.24335,0.875945588277609,0.481439104648855,0.0305894572018175
87.63934,17.80762,0.5207917,0.969551754471789,0.0540665448208067,-0.238843472030986
89.55855,-48.6954,-1.2468425,0.862148943942813,0.1778164748108,-0.474426495617764
88.2861,-40.7581,1.5386,0.746044224085223,0.32952876843752,-0.578643937565347
88.4451,-38.75715,2.93115,-0.557528695315863,-0.289913483197878,0.777889404838159
88.9866,14.24955,0.93048075,-0.356648973871451,-0.8950846216095,0.267628529111937
88.6574,14.37986,2.198908,-0.49000163685056,-0.0767822283918509,-0.868333395238806
89.19015,13.7052875,3.9714525,-0.0786409412207852,0.95043504674581,-0.300813603883201
88.3862333333333,14.4169333333333,7.00754333333333,0.975714542267866,0.0833875781042464,-0.202552817370969
89.9304,16.4029,-0.941743,-0.514985287666634,-0.777320665391012,0.3613346601739
88.084,15.3522,1.22992,0.51146091232324,0.0373250149440554,-0.858495531977252
89.3144,14.8517,3.11885,-0.578126640840291,0.801356476434712,-0.153614403057999
88.1419,14.8427,6.16343,0.975714542267866,0.0833875781042463,-0.202552817370969
88.2418,14.8802,7.72019,0.975714542267866,0.0833875781042462,-0.202552817370969
88.9009,54.5558,-0.926877,0.920548939638809,-0.389355894788544,-0.0314902671198162
89.0979666666667,54.40675,-0.102201166666667,0.886325472143783,-0.445565413892471,-0.126089727463939
90.70146,-51.64928,-1.894078,0.818415444040546,-0.573102051905293,0.0418353804555326
90.7207,-50.3544,0.631389,0.914792518837897,0.23226677898928,-0.330464507710223
90.5861666666667,-48.3982666666667,0.525099333333333,0.809622709262186,-0.0744183421568946,-0.582213860190202
91.174,-39.2518,3.49843,-0.423188960453654,-0.406554300869762,0.809706554372912
90.941,-38.6871,3.80731,-0.423188960453654,-0.406554300869762,0.809706554372912
90.77444,14.14166,2.979408,0.386545017779892,-0.384011557838208,0.838521360894411
