37.0481,-3.16961,2.33087,0.781800374368148,0.598861806608998,0.173645360499009
16.3114,-4.66146,1.02602,0.924444585987862,0.375032211126719,0.0689423531302417
37.4846,-6.35987,2.3583,-0.548262604459575,0.389847365961643,-0.739883198757731
38.4115,-2.67737,2.41665,0.15921441873619,-0.783377899966619,0.600807652007186
59.6072,14.937,3.74975,0.971930105828614,0.217770085509208,-0.0890396498268653
60.2659,13.0988,3.7914,0.00825647685165223,-0.630953645985375,0.775776596197487
37.3458,-3.34331,2.3496,-0.442665981216236,0.367206942540105,0.81805005374012
60.6001,-11.514,3.81253,-0.132457140195603,0.949920524839732,-0.283030214817094
119.88,5.35531,7.54223,-0.357738591389135,0.930639573939331,0.0770265126364786
121.777,6.40166,7.66154,0.335247743046165,-0.878769384186173,-0.339666483774168
22.3666,-13.7108,1.24528,-0.577853775088028,-0.749544021194857,-0.322906758844654
17.6494,-10.0685,0.983583,0.088551719836172,-0.663492809219136,-0.742923875661939
17.815,-9.07584,0.993906,0.992216844491662,-0.0142588908661088,-0.123702940701817
40.9292,-17.7006,2.2857,0.536003619847336,0.774298273951572,0.336396050015705
86.4661,-29.9425,4.83192,0.948976654513776,0.10659978739744,-0.296782402636447
39.0625,-2.10404,2.18394,0.895137092708461,0.19451346989817,0.40111606211372
122.275,5.94252,6.83623,-0.341871395130269,-0.913429335136427,-0.220841116877966
90.5418,13.4061,5.06203,0.0518641449033829,-0.766206276757984,0.640498284096147
58.2853,14.3558,3.25829,0.180727983206803,-0.528681419843308,-0.829357192287175
43.1902,14.703,2.41365,-0.307953682536398,0.940583588695775,-0.143063070316728
41.7085,17.9726,2.32925,0.115608696293275,0.951975590979777,0.283508559870904
24.1119,12.2439,1.34524,0.915832730742125,0.344075636309835,0.207032282022406
35.0043,19.9082,1.95083,0.316591230285104,0.00716509381148465,-0.948535004276193
29.9327,18.2948,1.6666,0.515240139070266,-0.829824586700739,-0.21428661740249
29.0853,17.9346,1.61921,0.651698126083805,-0.658528392788687,-0.376337492618004
31.5618,16.4988,1.76047,-0.0358032076207827,-0.931823537331306,0.361141282048224
35.3795,15.9107,1.97541,0.800889439017724,-0.412722917769448,0.43386161344114
59.8119,15.987,3.34347,-0.358546148087594,-0.607215685903165,-0.709037213751646
78.8718,13.2698,4.40954,0.998317828622358,-0.000660790938863281,0.0579747911602547
37.3762,-1.27593,2.08965,-0.0664668702164414,0.56918582378818,0.819517939499924
37.4712,-5.14672,2.09496,0.37072304215066,-0.790914962179605,0.486844891745815
14.8805,-3.49979,0.831871,0.238981984212802,0.254804553519966,0.936996398460102
44.6055,-18.8749,2.49123,-0.543448270704418,-0.34895987699818,0.763472973531999
38.7355,-19.542,2.16123,0.468221947117675,0.00425876514631018,0.883600628766618
17.4907,-10.0695,0.974637,-0.614132409361233,0.659421601501185,0.433594897624245
21.2516,-12.6844,1.18366,-0.60028164337442,0.692403851415777,-0.400298457619193
67.0607,-36.5258,3.73911,-0.0785211432408968,0.955802080943717,0.283331629240018
17.4718,-8.3027,0.975234,0.966952633083403,-0.254944652733148,-0.00241441832505722
64.0793,-25.0564,3.57984,0.434585899879908,-0.700415709057498,-0.566173939819781
60.3265,-12.1971,3.37262,0.426121523405571,-0.312590764889534,0.848944910460208
39.3047,-3.98572,2.19747,0.680035712979334,0.637646647484439,0.361881447472159
61.5184,0.0807421,3.43941,0.533756185584584,-0.655253580914336,0.534553158300589
60.3677,12.3705,3.37492,0.554925734382623,0.110675055347447,0.824504979635505
41.9867,12.6521,2.3468,-0.0465258136918834,-0.997817423433305,-0.0468587041351795
34.6505,13.654,1.93573,0.671157634058171,-0.0432301542496532,0.74005309539856
32.8058,15.8542,1.83095,0.320282635039498,-0.109997426236239,-0.940914236215798
35.0072,19.3662,1.95158,0.0966773709110423,-0.315150618530128,-0.944104641230943
29.2253,17.7048,1.62743,0.460645243896794,-0.873696371878763,-0.156398878004766
36.6956,20.4894,2.04551,0.480642971127972,0.106557112400601,0.870418242055003
32.9265,16.2336,1.83743,0.18873202141246,0.765735621703528,-0.614840777557799
42.8506,17.6699,2.39346,0.112166691739325,0.560247524869635,0.820695646474199
42.1813,13.6221,2.35746,0.313849682950687,0.104792760413955,0.943672005453472
59.0182,13.3097,3.29938,0.687568388284659,0.041661913942717,0.724923441722136
38.704,-3.15645,2.1639,-0.26290075460606,0.142944158537021,-0.954175120597738
37.5821,-6.83138,2.10111,0.0463981856490855,-0.203917420281321,-0.977887976239755
16.3004,-4.58693,0.911151,0.901436994091341,0.170152800396109,0.398069554476263
63.7052,-23.7603,3.55941,-0.573713487962298,0.787701917521091,-0.22445160472523
40.3309,-18.5847,2.25158,-0.381566337523784,-0.379863170254317,0.842680901618771
18.2496,-9.75437,1.01773,0.733332596911343,-0.501650662667791,0.458878976367661
21.1402,-12.5053,1.17759,0.261538149912763,-0.716976086580049,-0.646175740346671
21.9641,-12.8762,1.22363,-0.251358104521719,0.951007915130371,-0.180008468274782
17.6151,-9.32629,0.982432,0.328329178503177,-0.942259922884445,0.0659256268019415
40.5625,-18.4981,2.26463,0.968638178271743,-0.242631648948009,0.0535720311652282
64.5003,-23.768,3.60394,0.590576532216656,-0.771428695522781,-0.236890538686055
16.5284,-4.51094,0.923921,-0.247818822060634,0.872569489495614,-0.420961182811247
37.524,-6.51599,2.09788,0.741714270801719,0.292215288762881,-0.60371364528417
38.7649,-2.8543,2.1673,-0.273882464445577,0.209880608325664,-0.938583254654624
58.9847,13.7911,3.29747,0.686840038750404,0.618310044220035,-0.382025457772073
42.89,14.2249,2.39697,0.851753649149023,-0.471185425049508,0.229128820496762
40.446,17.0522,2.25895,0.770650429116882,-0.612571304028121,0.175653959771058
34.8711,17.5351,1.94567,-0.388528724023775,-0.0122450411735465,-0.921355246132085
26.7258,15.9042,1.48861,0.764044327049359,-0.535550560532625,-0.359752503002943
34.917,18.9588,1.94693,0.299446409928714,-0.590770467693792,0.749214323195748
26.9649,12.7705,1.50515,0.379366866248358,0.925239539756324,-0.00354610552642365
34.7271,13.5265,1.94008,0.567921402750193,-0.0860326275277255,0.818574167256046
42.8372,12.7246,2.39437,-0.209799396823894,-0.928063560430178,-0.307704795045498
60.4402,12.1376,3.37899,0.554925734382623,0.110675055347447,0.824504979635505
61.5307,-0.161517,3.4401,0.533756185584584,-0.655253580914336,0.534553158300589
37.6267,-3.9653,2.10366,-0.577538668472782,-0.417801222689047,-0.701349573849036
16.5834,-3.42094,0.927112,0.344513841598611,-0.929976611857278,-0.128272032592551
63.5512,-25.1388,3.55022,0.313930885425169,-0.464411754619041,-0.828111780708277
39.3029,-18.867,2.19365,0.949542657787633,0.15981475342153,-0.26986660710509
17.8272,-9.80111,0.993899,0.308106258536991,-0.911830382604443,-0.271359331532514
21.1909,-12.7616,1.18013,-0.60028164337442,0.692403851415776,-0.400298457619193
17.591,-9.94363,0.980435,0.845352537601674,0.501484353995645,0.1840992391836
40.9548,-20.4598,2.28522,-0.175579620286573,-0.973618198700773,0.145737435474507
45.3007,-18.9591,2.53017,-0.0102980081361301,-0.995636783786951,0.0927434407319734
85.6577,-28.1598,4.78718,0.221231046133037,0.890464726196855,-0.397654869989093
15.0521,-3.47766,0.841471,-0.202653890387066,-0.750526368429043,-0.629000453897848
78.4949,13.8429,4.38845,0.972831484977879,0.0899895452336758,0.213309126819202
61.1635,16.8654,3.41894,-0.261112457209218,-0.882234993636374,-0.391767406369637
34.7715,12.9169,1.94281,-0.346497854779335,-0.915127701652264,0.206108045214066
33.7116,15.4809,1.88208,-0.309736030612377,0.69217984665349,0.65188239064055
23.8888,12.7283,1.33225,0.332164347792845,0.891036174719854,-0.309388722153803
36.2646,21.1958,2.02039,-0.261536258397378,0.672964756421756,-0.691893938517823
23.9718,12.6515,1.33699,0.332164347792845,0.891036174719854,-0.309388722153804
34.9156,12.8142,1.95092,-0.0444157896036491,-0.987387296529013,0.151965668119516
59.5921,16.1799,3.33115,-0.303678174180565,-0.897764353333736,0.319059136226526
58.3491,-1.76191,3.26222,0.856954144871312,-0.488933795835283,-0.163013302763856
15.2063,-3.63965,0.850078,0.138575542227119,0.506234963982681,0.851189156614389
44.4851,-19.0308,2.4844,0.138691741324699,-0.959806926996928,-0.243998491341725
17.7682,-9.14025,0.991213,0.895326712077506,-0.363306769770089,0.257678617040116
22.0469,-12.8084,1.22838,-0.251358104521719,0.951007915130371,-0.180008468274782
17.5813,-9.75626,0.980093,0.972521531840977,0.0601919426413957,0.224897310225654
39.4112,-19.3023,2.1994,-0.0442286025762235,0.363131340673476,0.930687627582337
41.3843,-16.9383,2.31162,0.257702281405854,-0.965236790592539,0.0436746178555927
86.3632,-27.6401,4.8268,0.623439168525541,-0.494410984244355,0.605707340063425
59.7102,-13.3011,3.33808,-0.520232841050663,-0.849713855554685,-0.0856980441477359
58.266,-1.07073,3.25757,0.851681525239458,-0.302284113071408,-0.428092156609325
77.513,14.3,4.33353,-0.718764122051145,0.462118544119077,-0.519446424603453
43.656,12.4086,2.44024,0.679817012644126,-0.482736296168347,0.552100079407061
34.6271,13.0186,1.93468,0.723747312296489,0.689612800276553,-0.0249802649773764
35.1444,16.3067,1.96195,-0.546628315177397,-0.207055563998511,-0.811372589174406
24.6408,13.2538,1.37407,0.0816760426817325,-0.886697755266018,0.455078141485676
36.6474,20.6522,2.04261,0.273493820141143,0.638279320106137,0.719583657311262
32.829,16.3465,1.83186,-0.0646262852326501,-0.831805250300918,0.551292543781299
40.5587,16.912,2.26535,0.770650429116882,-0.612571304028121,0.175653959771057
42.8507,14.0248,2.39483,0.856385003914108,-0.400695522159927,-0.32564984813756
59.0263,13.556,3.29981,0.679612770714927,0.0241337544026656,0.733173951923834
118.902,2.96567,6.64766,-0.544331575690407,-0.274956789237693,-0.792528800586135
38.4923,-2.98666,2.15206,-0.271917037969023,-0.596328679497411,0.755283543095589
37.5596,-6.67461,2.09986,0.741714270801719,0.292215288762881,-0.603713645284169
16.3303,-4.52603,0.912834,-0.389553521209223,0.842731069919859,-0.371554030936585
63.3547,-23.9142,3.53971,0.739075185361999,-0.673498412516041,-0.0129521704937156
18.4307,-9.9447,1.02774,0.886936952563389,0.0936769499564686,-0.452291356566122
17.7321,-9.21019,0.989124,0.895326712077506,-0.363306769770089,0.257678617040116
41.7589,-18.4511,2.3318,-0.50684655631254,0.765106266186648,-0.397138476851644
65.1989,-23.1545,3.64328,-0.623189220837914,0.652429803080035,0.431243025548683
58.9958,14.2846,3.29804,0.536937973252624,-0.183561204796441,0.823409313144467
43.0939,14.4811,2.40832,0.739691658164018,-0.588564982099971,-0.326262950223016
40.4131,17.2261,2.25702,0.770650429116882,-0.612571304028121,0.175653959771057
34.5547,17.7182,1.92772,0.837958364348553,0.487693037341613,-0.244910761190295
34.8204,19.0842,1.94136,0.354887394187436,-0.0233946731018314,0.934616299193048
32.8566,15.7195,1.8339,0.53389290206575,0.837840089104921,0.113940134335846
34.4656,13.2686,1.92554,0.895360960129739,0.367515031993754,0.251518294233605
42.8389,12.5418,2.3945,-0.209799396823894,-0.928063560430178,-0.307704795045498
67.2918,13.2381,3.76205,-0.212707341630728,-0.97472375695031,-0.068331430930882
80.898,-0.53089,4.5229,-0.742737530781582,-0.239590557886612,-0.625249810028008
37.9456,-4.15004,2.12149,-0.596981531601128,-0.149530188585574,-0.788196532362795
16.4112,-3.45284,0.917479,-0.725945636863054,0.68596981493481,0.0494807570455005
39.4306,-19.1197,2.20063,0.704689864641844,-0.060053871589836,-0.706969396210424
17.5864,-9.84985,0.980279,0.883397420286543,-0.254074207957797,0.393770611754734
17.4704,-8.21787,0.975217,0.966952633083403,-0.254944652733149,-0.00241441832505722
64.3052,-24.8532,3.59259,-0.605012317951401,0.366815954391787,0.706686741584074
60.3984,-11.9643,3.37666,-0.247290874398787,0.71988646798867,-0.648545061384235
61.6299,0.323552,3.44564,0.533756185584584,-0.655253580914336,0.534553158300588
60.4163,12.6285,3.37762,-0.666425199144542,-0.208777502957119,-0.715743954360878
41.8771,12.7991,2.34063,0.323805384575287,-0.544837857652512,0.773499697342327
36.4159,14.5156,2.03428,-0.598336682988615,0.424386344514105,-0.679624487772577
26.8014,13.0828,1.49573,-0.790188560837307,-0.574722158568478,-0.212829694291595
34.5402,17.8829,1.92676,0.840960037685308,0.457995109896015,-0.288143530775312
40.9724,18.0393,2.28792,0.183904856576424,-0.958219577753386,-0.219075887622823
42.1908,14.9211,2.35762,0.62395628050691,0.673012451804149,0.397155888452571
37.3525,-1.5697,2.08833,-0.395730943741274,-0.0245673529642683,-0.91803783436957
16.7552,-4.08021,0.93666,0.777848782805626,0.592027880713043,0.210841787950655
40.3222,-17.6268,2.25169,0.505099169814593,-0.861545244696512,-0.0511333549988369
17.7732,-9.32055,0.991331,-0.725600614107333,0.669434579258423,-0.159251665297913
40.547,-18.1068,2.26401,0.802277534815341,-0.560536350401833,0.205304059893647
65.8118,-23.6644,3.67743,-0.156400622086737,0.317024450686867,0.935432703660489
37.7217,-6.24471,2.10894,0.642093721456247,-0.294536508001813,0.707788032055195
40.4662,-2.65936,2.26242,-0.130306426671215,0.911201209736868,-0.390810172004576
117.899,4.33466,6.5916,-0.394474500775453,0.918904604540184,-0.00204841226421178
58.1535,13.8385,3.25098,0.245839454587309,0.105772578683197,0.963522248921591
34.4824,13.1194,1.92654,-0.367928176103281,0.0351210021944257,0.929190708323201
43.571,12.57,2.43545,0.126897346301336,-0.970987987584781,0.202680515757526
68.0187,12.8256,3.80271,-0.373508129820282,0.81531383752596,-0.442442112933261
58.7187,-0.847793,3.28288,0.564327396736946,-0.764899247034947,0.310586109118667
37.726,-4.42693,2.10921,-0.194435504589203,0.710432311016467,-0.67637324460607
62.5523,-13.676,3.49699,0.52697859074089,-0.651886713645985,-0.545286417832485
86.6733,-27.3636,4.84422,-0.698740489029742,0.536543015393974,-0.473163102558112
41.7049,-16.8781,2.32962,-0.541003854342437,0.770550774385539,0.33699604401309
39.3351,-19.4574,2.195,-0.0442286025762233,0.363131340673477,0.930687627582336
64.2741,-24.5508,3.59097,0.929982670812045,0.116588796787561,-0.34862484772736
60.6163,-11.7596,3.38885,0.342312515613479,-0.918141178105777,0.199596890559216
38.8753,-3.63314,2.17347,-0.689501216004856,-0.205817608297883,0.694425795346317
80.4474,0.739115,4.49771,-0.610937057222574,-0.0866415865122317,-0.786923851207259
58.8414,12.5413,3.28956,0.526757760674,-0.35392937196323,0.772826152010545
43.5064,13.4846,2.43166,-0.448095020453923,-0.273536609502779,-0.851110201975116
34.5769,13.9406,1.93148,0.940467700943367,-0.182931143051968,-0.286455407321974
33.2648,14.8025,1.85743,0.193846560480726,0.813209636448817,0.54873818727748
42.6369,15.268,2.38249,-0.128860536491876,0.983286293724553,0.128619697979963
58.3663,15.3546,3.2627,-0.435326411522627,0.87530593998096,0.210547920590255
81.0648,13.3107,4.53216,-0.474939420502647,-0.848407069164496,0.233747709816206
37.3709,-1.42309,2.08936,0.346804588032559,0.00868547915023366,0.937897190619258
37.5125,-5.30295,2.09726,0.988323824315475,-0.0400483694939546,0.147010701621719
16.739,-4.14616,0.93575,0.75655925963183,0.652837740920749,-0.0376957649455552
86.3949,-30.2994,4.82783,0.898377349468227,-0.0649382797933724,0.434397465208904
40.3846,-18.2253,2.25483,0.0571641884638954,-0.257199285223608,0.964666151182744
85.3404,-27.6837,4.76955,0.469402007269833,0.865005398934164,0.177277791575253
59.8765,-13.5859,3.34736,-0.177703814444486,-0.616643618564732,0.766923726334811
58.2613,-1.30015,3.25731,0.319476947042843,-0.897227047267036,-0.304824713500499
77.544,13.9902,4.33527,-0.718764122051145,0.462118544119077,-0.519446424603454
35.1803,14.3452,1.96511,0.355346417950324,-0.182534779404282,0.916738772801557
45.2403,15.7995,2.52809,0.301589144289221,0.648025737965842,0.699361588150738
59.6092,15.1807,3.33224,-0.239695708852393,-0.357061448236585,0.902802907251046
91.2347,14.2437,5.10076,-0.155075913643825,0.770503465258863,-0.618284619759879
37.3835,-1.71848,2.09006,0.36881757826295,-0.00444098513230266,0.929491189638346
64.8041,-23.5906,3.62102,0.574218010773991,-0.702762733233891,0.419997877233196
43.8994,-18.1698,2.452,0.11454552051173,-0.970325828846777,-0.212948607892872
86.7682,-27.0183,4.84961,-0.698740489029742,0.536543015393974,-0.473163102558112
16.3487,-3.50697,0.913982,-0.799850336021878,0.598901574180451,0.039450531173445
58.7091,-0.616453,3.28235,0.432230606525092,-0.877498819635941,0.207779990183081
67.9556,13.0909,3.79917,0.471265447159964,-0.870855640866923,0.139711599673684
42.0371,13.2109,2.34949,0.492641277159384,-0.343230978459396,0.799685605387878
41.9849,13.3763,2.34653,0.492641277159384,-0.343230978459397,0.799685605387877
58.8508,13.0286,3.29004,0.750934549262546,-0.498059846980188,0.433628517915887
119.52,2.03947,6.68222,0.287965538525816,-0.305346102162873,-0.907656105865805
58.4497,-4.99852,3.26785,-0.0968880583920205,-0.788353710248154,-0.607545168427002
60.9152,-11.3206,3.40559,-0.207765973197202,-0.768880334681384,-0.604695238381834
37.5739,-6.37234,2.10067,0.609269502098458,-0.155533693267984,0.777560251087411
38.8132,-2.70425,2.17,0.668524172858341,-0.742311560763389,0.045265627810651
118.127,3.87736,6.60434,0.553770398872669,0.75926631377937,-0.341837695540284
61.7373,15.4641,3.45123,0.764737464245398,-0.0579801611813407,0.641728066776656
58.6455,12.7412,3.27858,0.526757760674,-0.35392937196323,0.772826152010545
80.8679,1.06143,4.52122,0.15902794787358,-0.950622084952995,0.266510343879441
38.8892,-3.48004,2.17425,-0.689501216004856,-0.205817608297883,0.694425795346317
61.0419,-11.593,3.41266,-0.207765973197202,-0.768880334681384,-0.604695238381834
58.0793,-3.35774,3.24714,0.881571746127657,0.000132543801288959,-0.472050038514536
89.1074,13.5524,4.98183,-0.278446553785152,0.938734604839825,-0.203088301882183
121.864,6.40363,6.81329,-0.382455514727863,0.859858634525565,0.338187681452292
38.8214,-1.93778,2.17045,0.053116568432895,0.906102133274048,0.419711274847524
18.2319,-9.72027,0.889416,0.930262858444067,0.344933049273595,0.125028819550911
43.9034,-18.2316,2.1451,0.375883713179603,-0.847221421544981,-0.375402846341918
16.4424,-4.51666,0.804013,-0.726481362660033,0.676885947492755,0.118533724291683
37.7444,-4.49441,1.84601,-0.0710435048453844,-0.91781889084985,-0.3905909676611
67.8048,13.2108,3.31607,0.581287540653641,-0.0130848633727222,0.813593007240941
41.866,14.5332,2.04658,0.494737926441697,-0.796345112529748,0.347949487555526
26.9134,12.8707,1.31404,0.130194984334579,0.308205718925444,0.942368558938471
36.6747,21.2328,1.78752,0.221908882140773,-0.590641514896628,0.775821531608687
54.8631,33.7152,2.67182,0.909106505110329,0.415100717316167,-0.0348820419368982
34.9164,19.0095,1.70299,0.224763290388684,0.0218755022506813,-0.974167811875825
44.3715,19.1123,2.16764,0.977739235549292,0.0290320511310045,0.207805503475278
57.976,14.6512,2.83512,0.220418647261326,-0.377020431703395,-0.899595027786211
123.785,5.30847,6.05409,-0.48461744614616,-0.866557041255949,0.119267871367393
80.069,-13.3942,3.91595,0.442903348232216,-0.809965560292064,0.384437791151515
62.9949,-23.298,3.07901,-0.434725705717042,0.898984760341289,-0.0532912888091033
18.2553,-9.83547,0.890464,0.802050854602525,0.595048652162159,0.0512984228934742
21.0562,-12.5622,1.02587,0.508065211246326,-0.860962497516647,0.0247652779335028
38.7695,-19.8067,1.89201,0.266985455040295,-0.882910139502736,0.386249210174191
63.7792,-24.544,3.11701,0.226522804908957,-0.757076046143423,0.612799542437835
60.8898,-14.175,2.97773,-0.643925322808733,-0.0193998524740354,-0.764842352625464
57.6317,-1.3865,2.81866,0.132671637261731,0.813877530683769,-0.565686840676344
67.98,12.6904,3.32466,0.736292559417736,-0.422542081791728,0.528518170038828
34.8743,13.4206,1.70437,0.881369453155565,0.165847812817767,0.442360023089591
37.8729,20.8344,1.84699,0.309816581922236,-0.262145796202946,-0.913943798654571
55.0311,33.4878,2.68039,0.706812374856015,0.682652273260314,0.18547814039106
23.7602,12.6676,1.1591,0.279441899086349,-0.954400819265456,-0.105030001525478
44.3183,18.4039,2.16537,0.936438347738273,-0.166467997771312,0.308822969682025
59.5226,14.049,2.91085,0.545072183902767,0.0555204042170286,0.836548742782539
119.226,3.23354,5.83111,0.551216782174419,-0.728013502984262,-0.407622863100027
80.0573,-14.6915,3.91533,0.897749852601659,-0.142829381498718,0.416707295273784
63.3227,-24.6868,3.09458,0.340538390105232,-0.937932697219271,0.0656952079798853
17.7189,-9.64673,0.864213,0.104927622854642,0.819694685576266,0.563108174687689
21.0786,-12.4508,1.0271,-0.447862406979348,0.893711198663125,-0.0264491549730001
38.8851,-19.4388,1.89797,0.890075532268209,0.268941094946393,0.368016622323639
63.8157,-23.9193,3.11902,-0.567604941546361,0.734087581216468,-0.37274663437234
60.7114,-13.3798,2.96906,-0.296373443485589,0.0641186524529234,0.952917404817498
76.797,-0.638142,3.756,0.947627405907304,0.0318636768996991,-0.31778452710575
67.809,13.7666,3.31624,0.667222821483559,0.320971003841369,0.67215423913309
34.2785,13.7103,1.67505,-0.573073493944297,-0.755444756989956,-0.317631846128284
55.1981,33.2595,2.68891,0.706812374856016,0.682652273260314,0.18547814039106
34.6012,18.0606,1.68829,-0.517158393241661,-0.557073547396091,-0.649781701105255
34.6049,13.6656,1.69108,-0.452716596637367,0.82045918832039,0.349133790157478
19.6444,-3.92563,0.960726,-0.626276161702211,0.59183060685144,0.507459064435153
42.076,-16.829,2.05609,0.193191518477078,-0.981097647046593,0.0111554537406569
17.4922,-9.72261,0.852971,-0.19369219496622,0.89753287260976,0.396128863116588
21.2404,-12.4215,1.03512,-0.447862406979348,0.893711198663125,-0.0264491549730002
41.3851,-20.2381,2.02032,-0.259421595986625,-0.950346498826805,-0.171877769660263
63.6589,-23.007,3.11164,0.270359393675581,-0.9422087687028,-0.197859633151702
19.6411,-4.00542,0.960558,0.0551335396981946,0.11545610259753,0.991781317213294
97.8946,0.727822,4.78785,0.0701740639483296,0.387198489821553,0.919321994857561
60.6865,13.3187,2.96785,-0.71806213449659,0.133000462102662,0.683152726762237
44.341,18.6412,2.16638,0.395579478199794,-0.0962709718437232,0.913372200369293
36.7176,20.831,1.79004,0.620403933996823,-0.293169975123016,-0.727427195235122
67.9115,13.5093,3.32127,0.868310940407908,-0.147129436785187,0.47369720243971
76.9312,-0.942091,3.76256,0.846542562164589,0.330525394088591,-0.417275274017518
59.6844,-13.4,2.91882,0.431105073020511,0.90146846081868,-0.0387689329899423
44.2605,-18.6073,2.16244,0.406020284617765,0.67213578891689,0.619177688338315
17.5586,-9.96154,0.856013,0.818299320783927,-0.223017681900708,-0.529763470960577
39.4774,-18.8792,1.92748,0.940210644837361,0.282537922146358,0.190200593804889
65.4929,-22.7991,3.20154,0.147363944975641,-0.831748025740769,0.53523741404871
20.1307,-3.77619,0.984523,0.25365087939031,-0.784708794121589,0.565591141915045
96.2995,2.23248,4.70983,0.703363357894941,0.189489562467914,0.685108526064646
59.9886,14.4085,2.93362,-0.0978952923263671,-0.861639082599111,0.497990565250084
43.6585,19.032,2.13269,0.000237465175546728,0.731006377522859,0.682370588193247
36.4422,20.8859,1.7764,0.566980941368035,0.814723283607012,0.121484909655584
55.0565,32.5212,2.68275,0.52784343389744,-0.101113399123866,0.843301482157465
35.0675,17.5304,1.71164,-0.371036970870946,-0.802364887082786,0.467484924060169
34.6746,12.9967,1.69474,0.553161468025903,0.363595394834562,0.749540378596461
67.9787,12.9672,3.32459,0.724782017889616,-0.108165983687753,0.680434527722334
57.3872,-1.15463,2.8067,-0.122049681209505,0.826918899108435,0.548916213655557
61.465,-14.5642,3.00584,0.733590697095917,0.673190163650157,-0.0930574698721242
40.3897,-17.1882,1.97323,-0.440896975762272,-0.815659728022201,-0.374578516263856
17.5693,-9.86628,0.856633,0.91341148823275,0.189527195446317,-0.360220620385185
41.0155,-18.7403,2.00311,0.151068412225468,-0.931631165141072,0.330517332322473
83.6427,-13.6538,4.09074,0.018538311499363,0.252625723721294,0.967386466062579
118.553,5.55169,5.79824,0.588878182494313,-0.796756636713329,-0.135651568496124
58.0267,14.9073,2.83757,-0.711880677013024,0.34497285917536,-0.61173493289811
35.628,15.9036,1.74021,0.800889439017724,-0.412722917769448,0.43386161344114
34.9365,19.619,1.70341,-0.549558558799466,-0.0702693940029915,0.83249480642026
44.4304,14.257,2.17223,0.919654376146901,-0.226348590535971,0.320939470922843
89.2089,13.7625,4.36298,0.64796807683376,0.724676101162728,0.23448223772377
38.8027,-2.3106,1.89777,0.733730034202363,0.679124397833859,0.0207434128387225
40.3782,-18.663,1.97186,0.466706284784741,0.606931830532311,-0.643287647036007
21.2256,-12.7894,1.03398,0.758783233865423,0.578712483419695,0.298897750976716
17.6119,-9.29102,0.859253,-0.584917600794409,0.810879521156717,0.0185957642910194
43.9363,-18.0204,2.14681,0.375883713179603,-0.847221421544981,-0.375402846341918
37.9436,-4.06435,1.85575,-0.355729824956632,-0.662758414466546,-0.658944288760525
43.8251,13.3055,2.14279,0.0762290446386694,0.548711046015062,0.832529471390973
26.8569,12.9883,1.31119,0.569963113045427,-0.786571232096624,0.237587345213428
37.9325,20.4371,1.85029,0.937841028432214,0.103444502615815,0.33129056773137
44.6175,18.2998,2.18009,-0.0857920691806791,-0.360094871386464,-0.928962542014943
58.4506,15.5076,2.85824,-0.666345033680865,0.738998360883926,-0.0993263243038665
39.0765,-1.86415,1.91116,0.359733980620151,-0.901658043870405,0.240008822985689
59.9963,-13.7183,2.93405,-0.281033769536918,0.959648740733493,0.00971158012328923
40.5436,-17.4635,1.98064,0.983622981458051,-0.177751975301804,-0.0298339676188442
18.6016,-9.60609,0.907706,-0.169145966300034,0.984852967948832,0.0381349394493246
62.959,-24.8627,3.07669,-0.316323831518018,0.595514740653626,0.738445277104543
16.859,-4.2056,0.824437,0.75655925963183,0.652837740920749,-0.0376957649455552
37.7032,-3.58884,1.84399,0.88858951212005,0.446862361214801,0.103550514628293
32.8201,16.0497,1.6022,0.344358047082846,0.763286129460295,-0.546636826405622
23.8925,12.6043,1.16567,0.279441899086349,-0.954400819265456,-0.105030001525478
34.5537,13.996,1.68843,0.969167276580926,0.21381263038791,0.122470196747268
58.2937,15.2207,2.8506,0.732789927968654,-0.510501545325251,0.449896758921672
39.0564,-2.0173,1.91018,0.359733980620152,-0.901658043870405,0.240008822985689
16.7338,-4.03472,0.81833,0.96055480363267,-0.252708057344095,-0.116073713525403
40.3411,-17.5859,1.97064,0.558446405279705,-0.824945889790073,-0.0871888258244208
38.889,-19.6538,1.898,-0.563887500457305,0.710263373037548,-0.421374925392267
63.3957,-24.0786,3.09839,-0.718512295817411,0.27062378321216,-0.640704962302565
60.5927,-13.1038,2.96328,-0.352623796160421,0.842279354294356,0.407703259382236
38.6745,-2.15023,1.8915,0.305532701949032,-0.883403939988802,0.355312885851307
60.2204,16.2312,2.94475,0.000825524643904069,0.736735175353537,0.676180892887292
44.5463,18.9571,2.1763,0.610568991300148,-0.200363017776347,0.766198517337559
34.7241,17.9319,1.69444,0.248612561003652,0.516526199445643,0.819385428109046
40.3378,15.726,1.97131,-0.375685671895288,0.347413060023916,-0.859164967661861
60.1619,14.7008,2.94207,0.74627875672677,0.230055896013154,-0.624613722205917
40.2537,-2.87436,1.96874,-0.130306426671213,0.911201209736868,-0.390810172004578
16.7299,-4.10353,0.818134,0.96055480363267,-0.252708057344095,-0.116073713525403
40.264,-17.7622,1.96677,-0.480720489430983,0.0162667533829898,-0.876722991472
38.936,-19.2519,1.90061,0.466461061144297,-0.884347679592376,-0.0185272781518941
63.2718,-23.0863,3.09265,0.416558249215509,-0.864196950516552,-0.28221065842452
16.4356,-3.4867,0.803784,-0.604996091945722,0.776494143023191,-0.176172002829863
57.1696,-2.5018,2.79606,-0.007451891971957,-0.151330479029873,0.988455135766226
43.6567,11.9513,2.13477,-0.704601630914214,0.540010811024582,-0.460352979451207
41.0975,18.1299,2.00748,0.183904856576424,-0.958219577753386,-0.219075887622823
35.0575,17.7175,1.71101,-0.583922888924379,-0.073093959547287,-0.80851180131641
34.7661,12.8579,1.69927,0.918150998488308,-0.388429384168544,0.0782391046048426
59.8601,12.8906,2.92745,0.945725446345743,0.31285120347858,-0.087906226264982
119.813,7.02935,5.85982,0.409927205288897,0.69317117774907,-0.592851924768743
38.0116,-3.76923,1.85908,0.327818308625108,-0.101456706015412,0.939277218575366
40.2089,-17.9484,1.96396,0.00549874648196963,0.964181883318311,0.265184953698134
39.2711,-18.9919,1.91726,-0.596780403732694,0.784728626335622,0.167493679671955
65.391,-23.0527,3.19648,0.774362858314544,-0.617911710005108,0.136188407368222
19.7699,-3.86984,0.966866,0.419752269796539,-0.794250320413939,-0.439288584558043
57.2537,-2.27974,2.80018,-0.108630102430338,0.0349877817557265,-0.993466333588506
35.6379,16.0952,1.74059,0.800889439017724,-0.412722917769448,0.43386161344114
35.3451,17.4764,1.72533,-0.327336923507607,-0.449452853853025,-0.831169459660272
35.1384,12.8211,1.71752,-0.130782414979631,0.948615418415715,0.288140153182566
60.6305,12.807,2.96514,0.828157838844938,0.218049979193074,0.51634174781203
120.948,6.61838,5.91535,0.244287064110985,0.955954730976692,-0.162709503813747
38.0461,-3.92393,1.86077,0.38848822358901,-0.69289701384658,0.607429525406156
41.5518,-18.7662,2.02943,0.129567290259141,-0.901891948996293,0.412071874350303
17.459,-8.25573,0.852492,0.876307812952886,-0.459642780385944,-0.144267568763076
66.4971,-22.5634,3.25078,0.337691336599627,-0.735705250899021,-0.587113570772441
62.1722,-11.1566,3.04064,-0.267887298218332,0.674432480923368,0.688024145018788
58.5639,-0.94772,2.86425,0.502203384403753,-0.844411897504557,0.186441165106232
44.7899,13.2143,2.19003,0.758534943950933,0.58275784606022,0.291578517145223
27.0909,12.5216,1.32298,0.0359537488071586,0.0749500740561583,0.996538917627249
35.3966,16.7378,1.72835,0.576542399733879,0.10405329945018,0.81041456809625
41.8843,14.1711,2.04757,-0.382466108894021,0.245259410688924,0.890824055027697
77.7135,14.1911,3.80071,0.806535197288666,-0.226771396983089,0.545963102274202
96.2202,1.85175,4.70595,0.745572690371623,-0.536236456011183,0.395691580168933
100.056,-13.9161,4.8935,-0.71218546207906,0.0231741715085528,0.701608740950488
17.5062,-8.18455,0.854854,0.876307812952886,-0.459642780385944,-0.144267568763076
41.5857,-16.8443,2.03204,0.207623737209807,-0.962104626067469,-0.176768414165567
16.4491,-3.42198,0.804451,-0.448642017299409,-0.868517049358124,-0.210709457043992
56.7635,-2.03648,2.7762,-0.303728182524774,0.0166965178622291,0.952612417214616
61.9344,17.4801,3.02845,0.0972456817255835,-0.66605867493066,0.739533041138353
27.0812,12.6611,1.32242,0.797852412287212,0.0798659387765481,0.597539086613435
45.1901,16.2875,2.2089,0.813515951864772,0.576128394430384,0.0791698755374965
60.8025,12.5935,2.97357,0.610604879258881,0.657842254901824,0.440914106250788
101.529,-11.2797,4.96557,-0.0990007694500264,0.789422831037219,0.605813867029705
18.4157,-9.61232,0.898551,-0.176200366453975,0.820425220001637,0.543926363809249
64.7559,-22.2572,3.16559,-0.216854971673677,0.680157938674873,0.700256452821363
19.8707,-3.80843,0.9718,0.184795524302052,-0.696737671011186,0.693114155094122
60.0507,-1.91778,2.93697,0.189265186405931,-0.955102770725859,0.227941629735587
62.0092,17.7651,3.03207,-0.399580116515465,-0.675452865174192,-0.619757337522891
42.9849,15.3018,2.10117,-0.10152438909339,-0.966059564407548,0.237532558685989
77.7686,13.8851,3.80341,0.806535197288667,-0.226771396983088,0.545963102274202
96.314,1.47435,4.71054,0.681441308388479,-0.314090283611485,0.661048437682636
100.111,-14.3257,4.89622,-0.321047873379477,-0.516801092536685,0.793627679552197
17.5673,-9.66402,0.856726,0.375497327604487,-0.79752250509566,-0.472185991774249
85.6399,-28.3091,4.18679,0.745355749906853,0.642970863304891,0.176162637984778
61.8837,-10.8536,3.02654,-0.267887298218332,0.674432480923368,0.688024145018788
77.273,-0.337941,3.77928,0.507096752743698,-0.827119393825042,0.242335287804503
86.6649,13.7195,4.23855,-0.712450093158717,0.513554656483612,-0.478201296069066
43.4572,13.5684,2.12473,-0.249114856538515,-0.95441667424458,0.164409854253658
43.1153,15.1573,2.1076,-0.10152438909339,-0.966059564407548,0.237532558685989
79.7277,13.9113,3.89924,0.654873131400774,0.0500733250594709,0.754078141764388
76.6869,0.268303,3.75062,0.864547901605572,0.113002953654127,0.489680771824712
85.1099,-27.7627,4.16097,0.630553860323602,0.750058252044712,0.199535580212234
80.1879,-13.7388,3.92175,0.442903348232215,-0.809965560292064,0.384437791151514
78.1097,-0.0341619,3.8202,0.386527070626055,-0.890265773492644,0.24088104163837
86.3517,14.0185,4.22323,0.898990216572626,-0.400802953533454,0.176560422930971
44.2363,14.0029,2.16278,-0.68358646397615,0.501077577958111,-0.530688992853834
42.0408,14.4087,2.05517,0.494737926441697,-0.796345112529748,0.347949487555526
78.4041,13.3626,3.83452,0.942834821353582,0.111201003859012,-0.314160526457266
57.5136,-1.61018,2.81288,-0.0154159951848398,0.817087954595819,-0.576306881398169
16.4125,-4.578,0.802542,0.829630358440071,-0.355921361141131,0.430155149961085
86.8476,-27.5751,4.24609,-0.543671597392593,0.773953205422699,-0.324680812498239
81.2067,-12.9282,3.97161,-0.707053381958384,0.647839667587164,-0.283512398603243
117.105,3.63733,5.72737,-0.706043478226245,-0.523356988900345,0.477074490015292
59.4486,13.5384,2.90727,-0.57897726533698,0.21341047629701,-0.786918861655759
43.5137,14.5318,2.12728,-0.529064093104527,0.602521512022281,-0.597544151454828
78.5545,13.0702,3.84188,-0.396544196549013,-0.901646668213516,0.172586169442297
58.2549,-3.69908,2.84914,0.778292911003893,-0.619420667113207,0.102850288449361
16.3824,-4.63918,0.801059,0.052372253871557,0.984441639434497,0.167725387380482
63.9603,-22.8317,3.12646,0.767134926548334,-0.608468006830089,-0.203151886857843
120.643,4.2226,5.90043,0.918225897241133,0.00141073294431312,0.39605455617664
90.7799,13.6393,4.43983,-0.0867856437136558,0.931259408837162,-0.353870266478359
40.2149,-2.71254,1.96684,-0.130306426671214,0.911201209736868,-0.390810172004576
85.4098,-28.6064,4.17545,0.039376648038466,-0.971393706834264,0.234187416211981
119.784,7.50088,5.85842,0.409927205288897,0.693171177749069,-0.592851924768743
60.0916,14.9345,2.9386,0.771581068812799,0.0847425481191728,-0.630461223857557
42.606,13.8568,2.08299,0.656899592893326,-0.327477910329131,0.67914736479136
90.9685,13.3017,4.44906,0.802183219866537,-0.0943056682405612,0.589583346696848
39.645,-2.98777,1.93896,-0.203874810473964,0.313021527566478,-0.927605834896565
87.1814,-27.3038,4.26249,-0.630894746839059,0.625761577544781,-0.458687547770318
100.27,-13.5438,4.904,0.67271942978097,-0.69619335956109,-0.250526196031893
59.291,17.2391,2.89912,-0.0125646514788453,0.986371223943928,0.164054680239766
43.4743,13.3862,2.1256,0.983040175891405,0.0223535403390005,-0.182022888169891
38.5011,-3.05401,1.88302,-0.385653650038209,0.922430528678202,0.0198288167740353
100.397,-13.1588,4.9102,0.962891664129742,0.242412456872903,0.118641661747884
137.929,9.72772,6.74587,-0.291454739598057,0.667987645807627,0.684723768985869
57.8105,-4.81473,2.82741,-0.0464132486517273,-0.746777361998913,-0.663452622238798
100.299,-12.7446,4.90543,0.832385650411605,0.316262164090748,-0.455096003666793
137.069,10.2094,6.70379,-0.514584402844665,0.476653682595678,0.712744105003316
203.63,26.5082,9.95914,0.873269780143974,0.214110717235529,-0.437671671292743
38.7867,-3.38411,1.89699,-0.642476737128142,-0.574769089213533,0.506817655901825
100.683,-12.3909,4.9242,0.635600348127967,-0.0501495664557599,0.77038770657631
139.18,10.9176,6.80702,-0.421033867131046,0.881474210393607,0.213854387702575
38.5122,-3.51295,1.88356,0.179455918871756,-0.97727529324953,-0.112820983801501
37.6626,-4.3344,1.84201,-0.0710435048453844,-0.91781889084985,-0.3905909676611
55.0175,33.4665,2.29632,0.652338232421319,0.459887962188953,0.602459868169757
23.8341,12.7023,0.996361,0.279441899086349,-0.954400819265456,-0.105030001525478
44.0904,18.3029,1.84606,0.0791735526959455,-0.976077406099324,-0.202495545274256
43.6345,11.9412,1.82847,-0.546008454868872,0.814226608160306,-0.197255666016138
57.2594,-2.27924,2.39988,0.442152313321553,0.13401288354595,0.886871963063496
19.6537,-3.84585,0.823693,0.252031553269632,-0.725358191742373,-0.640574421772155
39.4339,-18.8515,1.64991,0.00648439825918375,-0.896828277296316,0.4423313165727
2.29457,-1.38205,0.0957844,-0.169323656209266,-0.661993341552523,-0.730133080464138
18.3332,-9.56571,0.766548,-0.294964883951083,0.92338851719108,-0.245661074562866
41.8808,-16.7451,1.75378,0.127854862693459,-0.972279408385451,-0.19576998267169
229.099,-58.09,9.6007,-0.66460390026548,0.231099348215956,0.710559460570382
38.1851,-3.78523,1.60043,0.734756464222424,-0.524367828325482,0.430315371443525
59.5931,16.5609,2.49717,0.624061643141235,0.516707360435234,-0.586140400613977
27.2144,12.7188,1.13881,-0.675729995249328,0.396922656956005,-0.621161313923629
56.4664,34.6869,2.35645,0.973576699099049,-0.0839247498297266,-0.212379488975319
62.9369,33.8961,2.63075,0.106229943163717,0.250565470282353,-0.962253679794271
34.617,13.1435,1.44984,-0.278809784115791,0.0710604746513392,-0.957713690631826
57.5817,-1.61157,2.41339,0.227152538741037,-0.636441712872431,-0.73711849132925
16.7512,-4.0376,0.702004,0.943726483087353,-0.296656595133792,-0.146202563873558
40.3617,-17.379,1.68968,-0.664433021196959,-0.41994952020577,0.618199935960871
21.0203,-12.5359,0.877594,-0.44043931093432,0.800084165635055,-0.407281894127102
6.31984,-1.21087,0.264868,0.240614832740251,-0.151083061649223,0.958790076475596
94.9655,1.82703,3.98023,-0.107280217865865,-0.961658073382987,-0.252397909563398
60.2341,13.7128,2.52433,0.784010248818721,0.615961601123889,-0.0769365692509281
44.7696,18.8147,1.8744,0.544245822792573,0.111016560660975,0.831547838450586
56.4142,33.9791,2.35496,-0.785681886782808,0.485456463757902,-0.383452727956236
34.3691,17.9328,1.43704,0.904906886931508,0.215457988028806,0.367044113668243
34.6604,13.8582,1.45142,0.845890182410261,0.484681559272659,0.222606346277369
60.9929,12.6288,2.55621,0.774338088153178,-0.000552434835660679,0.63277185466093
77.3974,-0.338378,3.24391,0.866617112329313,0.448578794350917,-0.218521957424603
16.3538,-3.53551,0.685376,0.861498134861665,0.507290219604515,0.0218539864435673
43.8927,-17.9962,1.83787,0.276785286069616,0.926704479577652,0.254182440278778
65.4268,-36.7274,2.73363,0.140398233941046,-0.934884718131897,-0.326004447377146
21.1823,-12.5073,0.884479,0.489518959220666,-0.843316213335063,0.221785826620471
38.9424,-19.4603,1.62884,0.0269232985302677,0.608145439391462,0.793368930916516
64.2102,-24.0588,2.68936,0.579276108830322,-0.157533851429864,-0.799763887276786
19.9163,-4.06023,0.834694,0.600157903558622,-0.34810104639849,0.720163975975191
76.8469,0.571157,3.22084,0.99267600783102,-0.116333774513255,-0.0325698692685078
59.5964,13.0752,2.49763,-0.507163154479238,-0.602582524896752,-0.616181657815066
44.8593,19.0836,1.87806,-0.671307822662475,-0.40878955490732,-0.618253109196259
60.8258,35.9152,2.53981,0.961774888237204,-0.228705142839649,0.150608837705524
35.4586,17.7194,1.48312,0.996386160823457,0.0832207472626921,0.0169978158753132
35.0364,13.1277,1.46745,-0.128134643719472,0.44400935036117,0.886812950892541
67.9942,13.5214,2.84966,0.847682954083778,-0.0491757706957556,0.528219038782471
77.4922,-0.948661,3.24788,0.850853783927749,-0.447752298333182,0.274892192892387
59.6669,-13.3917,2.50057,0.412989354198349,-0.355026704804609,0.838686969133545
63.043,-26.4942,2.63947,-0.137144722981516,-0.962944990528912,-0.23222461147259
38.9538,-19.0422,1.62958,-0.339843033440756,-0.337945325744331,-0.87766717463361
63.6088,-22.981,2.66442,0.0355883790308727,0.993018357681783,0.112463365523755
61.3541,-11.5053,2.5714,0.848683299225423,-0.294126902387693,0.439574820602446
96.8665,2.24492,4.05991,0.343091526772716,-0.412134464207452,0.844057692145036
60.0947,13.93,2.51847,0.977668799811536,-0.122111369163346,0.171033714208993
54.486,23.4607,2.28097,0.180004034866006,0.857568346402767,-0.481845492538824
36.9963,13.3297,1.5497,0.15052054798929,-0.967128021277121,0.204955983307645
73.0752,13.0429,3.06266,-0.0420852389186331,0.994716921263863,-0.0936326824164664
59.4959,-1.89946,2.49362,0.563971875102252,-0.500069051163799,-0.657165632212906
16.711,-4.09754,0.700312,-0.745027006350796,0.663529409596707,0.0682896947439138
40.3541,-17.5853,1.68927,0.894744738306803,-0.44421614822835,0.0458679291603616
17.4856,-9.61544,0.730739,0.983040973328754,0.0410044458735193,-0.178743056299993
90.941,-38.6871,3.80731,-0.423188960453654,-0.406554300869762,0.809706554372913
105.617,-29.8986,4.42565,0.81230808855442,0.0611523783711233,-0.580013754913295
100.231,-13.1328,4.20088,0.843678823782307,-0.515910956348492,-0.148465239773114
60.0201,16.9342,2.51503,-0.128324100452433,-0.654042894002687,0.745493674049393
48.6117,22.9784,2.03405,-0.368473974948145,-0.100823490933258,0.924154507353584
42.8639,13.7497,1.79586,0.398383170327895,0.0583659592744607,0.915360182877465
78.1953,13.3227,3.27727,0.910344736098803,0.396768829974199,-0.117673093857969
76.9563,0.874801,3.22543,-0.590513236091411,0.731170501100869,0.341590129132495
59.9257,-10.9935,2.51154,0.685091911780188,-0.211288334198703,0.697141529565485
63.5291,-24.7586,2.66054,0.8139487234755,0.101190690912421,0.572055871069663
17.4506,-9.4971,0.729357,0.241283284352581,0.542693572755124,0.804528472325442
17.5359,-9.44436,0.732997,0.619377812973252,-0.710319178556529,0.334391670606863
16.4717,-4.52321,0.69023,-0.721806965093034,0.675551362845376,-0.150416293335991
100.044,-11.9089,4.19306,0.881745758844251,-0.0735207417444644,0.465960424600116
58.6375,15.0592,2.45727,0.498947874703015,-0.374785103751042,0.781400757828954
43.2312,19.2906,1.8095,0.00743962539330955,0.50631205563237,0.862318244208791
37.8159,21.011,1.58019,0.230764363990737,-0.683022080861403,-0.692985313962505
43.098,19.0056,1.80403,-0.0796993512919574,0.728270190363703,0.680639804324766
89.6485,13.4649,3.75733,-0.465346826135796,-0.878279430459546,-0.109898013799138
77.2707,-0.641874,3.2386,-0.658225001691108,-0.722396732734933,-0.211855629339024
19.9811,-3.99161,0.837412,0.600157903558622,-0.348101046398491,0.720163975975191
61.7718,-24.3854,2.58684,0.818686073034457,-0.568580182179214,-0.0804343847646714
17.4871,-9.71608,0.730721,0.273730399663804,-0.959711777370182,-0.063442672365376
18.1919,-9.59339,0.760568,-0.0749734264451808,0.858016953757909,0.508119958662388
62.5168,-25.3135,2.61781,0.851283608689456,-0.523821088583551,-0.0304579173910769
37.6826,-4.03511,1.57937,-0.638691791863672,-0.495702383821295,0.588516730161393
121.584,6.6511,5.0959,0.798688875252941,-0.530903487949416,0.283262364302665
59.0482,15.661,2.47443,0.289483619402454,0.0409941036430484,0.956304720036536
27.3217,12.335,1.14352,0.60236358406256,-0.264248823687336,0.753213563191188
37.9291,20.8575,1.58509,0.93835813634168,0.234881959156185,0.253602983468888
46.4761,20.2531,1.94554,-0.64562400003638,-0.595587902842052,0.477958890036821
61.6719,18.1889,2.58414,-0.560580353453246,-0.640405001879274,-0.525005810339506
91.3578,12.9874,3.82899,-0.0914292802716163,-0.825628310347552,0.556757200098625
76.7141,-1.24105,3.21528,0.97350230972244,-0.227519849467511,-0.0229776209246276
16.3688,-3.40416,0.686015,0.950689816194296,-0.307927034623218,-0.0370110082625101
42.013,-18.5272,1.75861,-0.193100754137052,0.165816579531015,-0.967066161492758
40.1718,-20.2947,1.68012,-0.101442628516512,0.476494723670801,0.873305313984489
63.7895,-24.2198,2.67165,0.338273976451764,-0.803633210454878,-0.489636987889495
61.1644,-14.2343,2.56329,0.927474130077525,-0.108912279256121,0.357672830201254
38.7242,-2.91745,1.62302,-0.403369142749047,0.233075322457681,-0.884855484663539
63.0624,34.3203,2.63572,-0.563304660838171,0.211622479821144,0.798688791152313
34.8152,14.2744,1.45778,0.596050319876677,-0.638716262685235,0.486585605989652
58.3968,15.2426,2.44716,0.72849963905315,-0.348829059677743,0.589581684776394
58.6744,-3.02963,2.45919,-0.636360681118462,-0.673598589419397,0.37591225553132
59.8206,-13.6737,2.507,0.920138010254808,-0.200828149690815,-0.336175692720468
42.3877,-18.9142,1.77419,0.0824727475282081,0.133104454072967,0.987664644614297
38.9263,-19.2401,1.6283,0.847981067264024,-0.0535407517638026,0.527315368126451
63.2686,-23.0772,2.65011,0.333250775427818,-0.897886495201749,0.287652155234542
16.453,-3.48926,0.689539,0.950689816194296,-0.307927034623217,-0.0370110082625102
38.936,-2.16408,1.6319,-0.394352490131066,0.754202048181091,-0.52503845958832
43.5846,11.7435,1.8264,0.657066750040402,-0.707540453604742,0.260095737189483
27.315,12.6206,1.14309,0.808157068878285,0.135435911690668,0.573183448685127
34.5444,18.2169,1.44424,0.852084678726611,-0.478030403199991,-0.213163397176488
34.5995,14.0096,1.44881,0.844891440746379,0.513775354995854,0.148974286212058
59.2771,14.9751,2.4841,0.0621552410499045,0.976893183489937,0.20449066986277
38.9272,-2.31727,1.63153,-0.801095803189312,-0.386319852569944,0.457167896535626
60.0115,-13.2212,2.51503,0.72440115010885,-0.389530948552699,0.568778176304796
41.5538,-18.7604,1.73919,-0.247828189233164,0.764832585187433,-0.594653096567165
39.0029,-18.8554,1.63175,0.307507251752999,-0.460976949064263,-0.83242990248472
63.9758,-22.546,2.67993,0.1559792367873,-0.968118835321289,0.196001016291758
59.8824,-10.7422,2.50974,0.685091911780188,-0.211288334198703,0.697141529565485
57.4803,-1.15614,2.40914,-0.539272265122329,-0.718187201946201,0.439764217542218
59.3698,17.2563,2.48771,0.971095645176301,-0.162490186145622,0.174843322223028
32.8444,15.8781,1.3741,-0.404102494720765,0.837340318776864,-0.368187946993264
34.314,17.7136,1.43487,0.936923956045365,-0.114100081099821,0.33038564145755
34.7321,13.7111,1.45449,0.659710844175647,0.280800436256169,0.697088744045836
59.7352,14.841,2.50332,-0.349353367128876,-0.586439265492721,-0.730781234545657
38.6437,-2.45303,1.61965,0.924293461064009,-0.0264653132716746,0.380763949222806
61.2538,-14.5094,2.56702,0.887403741995686,-0.311531882139928,0.339797712032332
40.109,-18.3196,1.67861,0.897147253659759,-0.0369660377766263,0.440182141052824
17.4308,-8.23942,0.729354,0.790303120099411,-0.574987013986939,-0.211685880746733
65.1472,-22.0978,2.72921,-0.739830763465896,0.553283812017983,-0.382789060434489
61.8173,-10.8384,2.59084,-0.648009987634826,0.745786666608957,0.154548710230185
76.9738,-0.0336544,3.22616,0.295909065900021,0.29111740878242,0.90977386147437
86.754,13.7292,3.636,0.949541663555332,-0.018371220738592,0.313102423211872
44.4003,13.8582,1.86031,0.224145473179867,-0.504889361192055,-0.833573955811992
34.6355,17.6882,1.44845,-0.173479862654453,-0.984810198390285,0.0073219123102708
59.765,14.35,2.50461,0.547458669406382,-0.48589467931802,0.681318843055315
40.0424,-2.85836,1.67828,0.284594270207425,-0.875085257622175,0.3914484554286
16.6342,-4.14817,0.697088,0.149213959076647,0.97526253778776,-0.163089474842647
17.4892,-8.17368,0.731849,0.790303120099411,-0.574987013986939,-0.211685880746733
83.8984,-28.0906,3.51484,-0.0658841033686624,-0.384394639366327,-0.920814881585728
62.007,-10.6204,2.5988,-0.648009987634825,0.745786666608957,0.154548710230184
76.5615,0.267779,3.20888,-0.299469744779309,0.385524017630125,0.872748018497976
88.5719,14.3743,3.71219,-0.136346622539685,-0.823709924859048,-0.550374016656601
42.989,13.6035,1.80114,0.398383170327895,0.0583659592744607,0.915360182877465
35.3586,17.8631,1.47882,-0.0911947706890388,-0.817435969950522,0.568754735215473
41.9673,16.3555,1.75755,0.840383688283045,-0.541787962729035,0.0148680835922648
59.9991,14.6562,2.5144,0.580213185752386,-0.143288932522715,0.801761149529938
38.4014,-3.04513,1.60949,-0.0985497482798361,-0.99380073301808,-0.0514592087648715
39.7601,-20.525,1.66261,-0.30460497361537,0.802451555374203,0.513115300226277
80.9068,-13.53,3.39092,0.787720175676491,0.245063321000985,0.565191023930996
79.2235,1.21235,3.32045,0.772518490431538,-0.634785166989297,0.016216464218502
78.0316,13.6109,3.2704,0.871629319927987,0.206255761980882,0.444658171286169
42.8808,13.9415,1.79653,-0.538708453001653,0.0218538081195087,-0.8422087708729
34.8241,12.8749,1.45861,0.797359310697873,-0.338038723716523,0.499947948202127
60.3241,13.4838,2.52812,-0.664095216796459,-0.697838491040961,0.268326263063717
38.6487,-3.52428,1.61986,0.413525622710572,-0.721201449852189,-0.555756266804914
17.599,-9.37932,0.735709,0.844692249677982,-0.499916360091232,0.191255421484158
66.3735,-21.9329,2.78071,-0.592087132857716,0.340090083443436,0.730596716559667
