22.3525,1.85570166666667,-1.77185833333333,-0.389432741033855,-0.0324911483076928,0.920481648645157
21.7341,3.472185,-1.748685,-0.14356395800624,0.989140031994392,-0.0314862996828061
21.9767222222222,4.19983333333333,-1.77667111111111,-0.186560083801565,0.0177603141002919,-0.982283007271841
22.01175,5.115755,-1.7702625,0.042573054420509,-0.0153410376529778,0.998975569071155
22.2002666666667,5.66220666666667,-1.75981333333333,0.0641557104620232,0.0315277272996087,0.997441751294999
22.1884,7.04111333333333,-1.78413,-0.0147359494099804,0.0498729977996885,0.998646852438568
22.2468,8.04582,-1.750725,0.0611583299977355,0.0271407640120169,0.997759007777295
22.35645,9.349505,-1.75765,-0.0115364915983698,0.134220725643762,0.990884305138225
22.2465,10.4282,-1.86553,0.0171058670225147,0.00964068677979758,0.999807204650888
22.3335,11.43515,-1.753785,-0.0136116808089379,-0.262972967318703,0.964707178684367
22.22785,11.87225,-1.692695,0.0471220594391629,-0.176858846951763,0.983107552493167
21.94016,13.19758,-1.49802,-0.279214003320625,-0.286345017323705,0.916540272657758
22.5998,14.0622,-1.33694,0.258481381108932,-0.965432051312782,-0.033590622471365
22.62045,14.0600666666667,-0.943940166666667,0.201801409545555,-0.977350464253405,-0.0637358700347018
23.0532722222222,-13.7468777777778,0.601157555555556,0.966623822667745,0.138433631876922,0.215579486539328
23.0242166666667,-13.7504333333333,0.867646333333334,0.961775758382958,-0.246439027424445,-0.119395126990087
23.111075,-2.54738,-1.778315,-0.0889722773453974,0.0626988279017054,0.994058746173347
23.1685909090909,-1.83534727272727,-1.78232727272727,0.449819939960353,-0.0636502305813014,0.890848286612828
22.8971857142857,-0.764932857142857,-1.76184428571429,-0.146691442863433,0.0776593817456711,0.986129119850704
23.0481142857143,-0.00543684285714285,-1.75004,-0.00548824255737595,0.00651953157984594,0.999963686791481
22.9650555555556,1.18843533333333,-1.75808222222222,0.0930434294671451,0.00257824138803623,0.995658713066047
22.9659666666667,2.17966333333333,-1.76714666666667,-0.0387851188866996,-0.124335105176775,0.991481969666431
23.0031,3.58036,-1.769995,0.0767284425984215,-2.95428530164448e-05,0.997052027340419
23.0025571428571,4.17352857142857,-1.76993142857143,-0.326064250330884,-0.11781412220408,0.937977578231719
23.0563875,5.10763625,-1.76387875,-0.749308753686051,-0.529160135330918,0.398153165033285
22.87078,6.198718,-1.743616,-0.171904503007016,0.0217637051461386,-0.984873181168125
23.0295166666667,7.12966833333333,-1.75773166666667,-0.258948015780733,0.9655484522462,-0.0257315271250866
23.229075,8.2171375,-1.7457225,-0.0413380662862332,-0.00330902007710807,0.99913973730497
23.09865,9.12485,-1.74883166666667,-0.228056709385368,0.0180909059834957,-0.973479766828779
22.949775,10.167875,-1.76387,-0.17158831023766,0.000537505067268298,0.985168596169248
23.21628,11.15172,-1.750446,-0.0517745846227392,-0.0523009783501825,0.997288323430469
23.27726,12.07688,-1.640576,-0.06618736801471,-0.236504956835399,0.969373322155903
23.12592,13.08514,-1.587804,0.00182442992602487,-0.127976772734664,0.991775487242887
23.28375,14.1096,-1.466235,0.893296784997027,0.193088874119296,-0.405878726475431
23.3878538461538,14.1013461538462,-0.889393923076923,0.346804396520142,-0.9059242088699,0.242956865179285
24.3743,-3.41694,-1.78994,-0.0732413116640095,-1.79895498448879e-05,-0.997314248340066
24.28972,-2.869734,-1.76651,-0.267390587975132,0.0016015077295348,-0.963586897293288
24.046,-1.932615,-1.7763,-0.0614986053634878,-0.00313493374647886,-0.998102246129499
24.0484818181818,-0.885238909090909,-1.75044181818182,0.621021187921174,0.000423974215076865,-0.78379366187718
24.1094,0.202414388888889,-1.76063,-0.0196617758612159,-0.0461730204224082,-0.998739939501297
23.9626666666667,1.18650244444444,-1.76906111111111,-0.114534074901236,0.0296861581813253,-0.992975668231076
24.1458125,2.042435,-1.75166875,-0.122323939390232,-0.128898226440437,-0.984084397332142
24.10945,4.142873,-1.778931,-0.283796042696556,0.258519442208732,-0.923378310417708
24.1359714285714,5.12684428571429,-1.78441142857143,0.0364393590291723,0.000396451215864073,-0.999335787380787
24.0407875,6.17273125,-1.74376,-0.0783273637088004,0.0778669617287911,-0.993882065622253
24.02125,7.1912525,-1.741595,-0.965401629946044,0.244778562427878,0.0899063305516509
24.033,7.93518333333333,-1.79252666666667,-0.282285127624568,0.165152332577242,0.945007837939071
24.027975,9.1672275,-1.784595,0.271380395861447,0.101597300675062,0.957094911300663
24.02824,10.24466,-1.79684,0.149657647914673,0.00878644702208906,0.988698835222018
23.91555,11.2027,-1.7537,0.122284513765841,-0.0273180628714447,0.992119055927263
24.1725777777778,12.1298111111111,-1.66796444444444,0.0796057578647258,0.175067491546951,0.981332918391226
24.17286,13.18836,-1.58377,0.0292418496562079,-0.105701578082423,0.993967851904461
24.2136166666667,14.1034,-1.419585,0.523606624980068,-0.419848152086779,0.741325590726706
24.3021,14.2828857142857,-0.716141857142857,0.517833098327603,0.739014529540263,0.430936662869172
24.2463,14.73435,-0.3789235,-0.399188484248047,-0.419655033316336,0.815192128921772
25.5555,-3.581795,-1.741965,0.0420550651240781,0.0634826915653571,0.997096444366856
25.33115,-2.824675,-1.80064333333333,-0.0207709731873822,-0.0322580079124721,0.999263722747087
25.3195166666667,-1.915325,-1.75558333333333,0.0491394921848811,0.0608318971194581,0.996937706479527
25.3550875,-0.958029125,-1.7949225,0.190781032689622,-0.0412072014289623,0.98076733434402
25.3485222222222,0.143218522222222,-1.78211888888889,0.0660557879407915,0.0891970589595826,0.993821169804951
25.4456428571429,1.15868128571429,-1.77933428571429,0.114227197703573,-0.00023547196276626,0.993454624961676
25.171,2.05651444444444,-1.77952666666667,-0.24631857373347,-0.119226842222584,0.961827489900107
25.59935,4.1380125,-1.767585,0.104539579654434,-0.0391314441180325,0.993750575530355
25.1777333333333,4.976025,-1.77533,0.0576918650236057,-0.0447731109012211,0.99732994402571
25.31494,6.062372,-1.78699,-0.12240968220047,0.515760156514152,0.847942999650376
25.2389666666667,7.22989,-1.79293666666667,0.0888792759242794,0.147405750074277,0.985074626186369
25.50285,8.316425,-1.7382,-0.982637721618744,0.176661431996517,0.0566907972854791
25.23525,9.22444,-1.85071,-0.00877398710519016,0.122290333252672,0.992455586685484
24.764,10.346,-1.64326,-0.048007800712183,-0.0519701118826879,0.997494039351454
25.04535,11.299175,-1.7486875,0.173877867687322,-0.267684799475378,0.94768736155883
25.111975,12.025,-1.7313175,-0.0894008803608095,-0.193260892885251,0.977065867724335
25.1418666666667,13.2256333333333,-1.51961333333333,0.127031492802044,0.136789874060639,0.982421259028406
25.0442666666667,14.15875,-1.46927333333333,0.600900660365557,-0.376985124044046,0.704840842049985
25.0939777777778,14.2371111111111,-0.641073888888889,-0.0728587571143269,-0.424524707060715,0.902480124217021
25.997,-3.64351,-1.81789,0.0303773066987076,0.0676882844559983,0.997243959813814
25.97825,-3.1464775,-1.7937025,0.823761793293009,0.566609715705198,0.0192337718391649
26.1569571428571,-1.84859714285714,-1.80266428571429,-0.0462263070379346,-0.0219903318049497,0.99868891745365
25.83145,-0.593854,-1.806315,0.0596960109874889,-0.992982653633852,-0.10208739322
26.308325,-0.16446395,-1.79349,0.0543105457605526,-0.0111403075799571,0.998461946278482
26.1793333333333,1.18847283333333,-1.784405,0.12773325909834,-0.06419033958488,0.989729162359124
26.66835,2.31782833333333,-1.771315,-0.0662603187898564,-8.97373173273278e-06,-0.997802370248407
26.1492,4.43910333333333,-1.79782666666667,0.0264935842100099,-0.0679006827246323,0.997340256522936
26.1096,4.8551375,-1.8024,0.0429214956940581,-0.272104054058899,0.961310110719791
26.24056,6.04629,-1.797552,0.0205116303909126,-0.0582141331733432,0.998093376251733
26.2792666666667,7.22340166666667,-1.80613333333333,-0.173071465621685,0.0958302918666293,-0.980236105715515
26.2481666666667,8.15520833333333,-1.78848333333333,-0.0154269052230679,-0.0722494658433953,0.997267278757597
26.6868,8.9102,-1.818665,0.992195783987211,0.124126574324296,-0.0118372203036759
26.2339,10.149768,-1.795798,-0.0339325878880009,-0.0366666611386728,0.998751288079352
26.339825,11.224075,-1.7704525,0.132009124073241,0.0164451297134156,0.991112076846067
26.1044625,12.0794625,-1.69693375,-0.0424859142015353,-0.57946109208103,0.813891755615401
26.09648,13.25114,-1.583424,0.0245235484299807,-0.0250314992062642,0.999385821202147
26.1461833333333,14.3777,-1.39695333333333,0.881302492205402,0.455828470048555,0.124604667351352
26.19305,14.40235,-1.037408125,0.830811524531303,0.5525229614638,0.0668624540474227
27.21126,-3.79067,-1.826248,-0.0747062740621741,-0.00885083528406194,0.997166302745195
27.3113166666667,-2.93534,-1.81402166666667,-0.0662767314521286,-5.49127338878737e-06,-0.997801280234631
27.06272,-1.829928,-1.797508,-0.109862089443782,0.0145043784491433,0.993841005548096
27.0231625,-0.860847375,-1.7948775,-0.126063802391439,0.0149731274954849,-0.991909130505217
27.0708571428571,0.254114228571429,-1.77036428571429,-0.0653511700382146,-0.0111508695344517,-0.997800021388686
26.80676,0.9575638,-1.780504,0.0344840441371839,-0.00736258171851114,-0.999378128182913
26.940025,1.8531675,-1.741095,-0.99364046452948,-0.101648856634175,-0.0484369403926907
26.91136,4.349354,-1.806228,0.0561208308126198,-0.0777869299334377,-0.995389193170406
26.99755,5.241435,-1.79312333333333,-0.081683085811336,0.0289901420282672,-0.996236641143819
26.91236,6.02159,-1.806182,0.771784099197005,0.0781755053314453,-0.631060927797658
27.143175,7.0099675,-1.778265,-0.949970945244297,-0.295635793075508,0.100770437352789
27.2696,8.43443666666666,-1.77818,-0.0669947586973692,-0.0267176927562663,0.997395541999694
26.8242,9.9048,-1.78064,-0.0344281930170624,-0.0830576110644819,0.995949864586487
27.1158,11.3316,-1.89435,-0.103781826466652,0.220108627483434,-0.969938928284974
27.2318333333333,12.2042166666667,-1.69462,0.0459432794901625,-0.151159373865821,0.987441167240956
27.6706,12.4887,0.964908,0.998726431416957,-0.0159251589901451,0.0478738394145262
27.2294333333333,13.2867333333333,-1.58218666666667,-0.0175636457388757,-0.230623264135959,-0.972884591504889
27.2770583333333,14.281475,-1.45795,0.806199540924393,0.219476769560254,-0.549429019834858
27.1626277777778,14.3487,-0.961490833333334,0.621130923616134,0.723658571342545,0.300856523695657
26.80135,14.75935,-0.699601,0.820103207280178,0.236308321791842,-0.521142117335271
28.4633,-2.85112,-1.99035,-0.195952397567629,0.0423264348283652,0.979699510463396
28.3324,-1.1544,-1.9812,0.175186587145562,0.00201350157722325,-0.984533191667853
28.2838,0.4637475,-1.877515,0.486824990065801,-0.86899114197753,0.08863308756904
28.3438,1.191555,-1.78324,0.0127152061699824,-0.028842506202419,0.999503093225838
28.5191333333333,2.32653666666667,-1.79428,-0.0627837589586169,-4.65381652860096e-06,-0.998027153733488
28.3976,2.824525,-1.78663,0.0627811107158285,-9.67290679587673e-06,0.99802732028924
28.56375,4.557685,-1.79706,-0.000372360419565165,-0.0379909050981239,0.999278015608041
28.178825,5.1793925,-1.79723,-0.0207506903522021,-0.0650099298972187,0.997668841783017
28.472775,6.0214625,-1.791265,0.387259287760167,-0.921340150584896,-0.0340964948886152
28.5790333333333,7.20214666666667,-1.79783333333333,-0.0166159548106048,0.108779778125624,-0.993926994258971
28.4991333333333,7.87531333333333,-1.75925,-0.0454345906861126,0.0553972797662695,-0.997430117533897
28.3681333333333,9.13786,-1.78417,-0.0897632002519797,-0.0433973733588114,-0.995017203804074
27.9066,10.3019,-1.7547,0.000581264598575349,-0.00836083330858599,0.999964878682173
28.1934,10.74505,-1.77259,-0.034621710880569,0.0319658155275179,0.998889144887141
28.1756,12.174525,-1.7213425,0.0378792813633516,-0.0668397234375164,0.997044438033828
28.13272,13.25534,-1.58992,-0.524159687538433,-0.281820125614876,0.803638002310759
28.0661333333333,14.2152166666667,-1.38614833333333,-0.285298428443466,-0.936689762915891,-0.203019936893548
28.1088090909091,14.3036,-0.934219818181818,0.157183795402624,-0.986466796636088,-0.0466531199102589
27.9281666666667,14.7254666666667,-0.518566666666667,0.192665743543326,-0.512434095873914,0.836834038893484
29.25875,-4.51089,-1.84079,0.123206476009276,-0.0241316804739738,-0.992087610177084
29.3252571428571,-3.97360428571429,-1.83021142857143,-0.0487292634311633,0.0690116296322,0.99642503674936
29.2639166666667,-2.81217333333333,-1.84113666666667,0.315760950572126,0.947204811786368,-0.0556602786782379
29.1840142857143,-1.81602714285714,-1.83610714285714,-0.178874628210208,0.0127953677790667,-0.983788669352345
29.2034,-0.786895,-1.83732166666667,0.0748225756409963,0.0968367674635607,0.992483865179508
29.2537730769231,0.134480807692308,-1.55631461538462,0.916214883481801,-0.25444660102805,-0.309527405106078
29.4311903225806,0.185468470967742,-0.883711677419355,0.936813751077528,0.326018557288098,-0.126853837529016
28.9849166666667,1.0472135,-1.80677333333333,0.11107960398939,0.046345311765961,0.992730292503899
28.81968,1.963872,-1.813182,-0.0523470176874894,0.00140973586360172,-0.998627959945054
28.7427,2.68731,-1.80835,0.0627811107158286,-9.67290679573102e-06,0.99802732028924
29.0399,4.45759,-1.82703,0.0151064564022872,-0.0367891642772469,0.999208863234683
28.99552,5.201026,-1.803886,0.0253828542222668,0.397534343484208,0.917236150869617
28.8618,6.15434,-1.78205333333333,0.000487276442380364,-0.10209799865284,0.99477422626079
29.1912,6.78657333333333,-1.80182333333333,-0.028954788183527,0.0730486688474904,0.996907975803613
28.9636,8.44198,-1.82184,-0.0070786155194166,0.0786368496107979,0.996878196714933
29.4223333333333,8.72306333333333,-1.78156333333333,0.159249486937739,-0.0555565060593525,0.98567391948075
29.5059,9.960705,-1.75224,0.854275179016015,0.517349366930395,-0.0506315223341737
29.407225,11.262525,-1.771085,-0.0885691119690425,-0.120909872176593,0.988704361887443
29.2031,12.1153,-1.73356333333333,-0.0251133870125489,-0.223245970503731,0.974438584235356
29.05015,12.9721,-1.57151,-0.151664705880909,0.0357140783175394,-0.987786576948678
29.1867,14.276075,-1.4749,-0.0650905907163517,0.98647143825812,0.150457025429698
29.2084333333333,14.3979222222222,-0.892624888888889,-0.118746539602843,-0.988513705868245,-0.0934874999290266
30.6727,-4.54247,-1.82228,0.291667192224968,0.0124307991660189,0.956439085468436
30.44156,-3.800716,-1.82958,0.0447960069881811,0.00935223900346065,0.998952377935774
29.8008,-2.39147,-1.7705,-0.139049294911196,-0.00240041290614673,0.99028255139762
30.3448,-1.9546,-1.80282,0.0593059060590765,-5.11187014025361e-06,0.998239855686188
30.16755,-0.010724875,-1.6619275,-0.990638802302128,0.0474888748770047,-0.127982694675182
29.9499375,0.183503970833333,-0.754500375,0.119924929953843,-0.890030678641223,-0.439844747897494
30.415525,1.0979885,-1.8070175,0.501026528988537,0.864919246668777,-0.0297844588941001
30.5370833333333,2.16937833333333,-1.81424,-0.059305811072581,-4.0298771369588e-06,-0.998239861334331
30.4283,2.9052125,-1.807775,0.0593093228521808,-1.97104650952878e-06,0.998239652698154
30.3086166666667,5.12013,-1.80063166666667,0.76856371595549,0.628496798903402,-0.119589248199266
30.2781,6.10383857142857,-1.79877428571429,-0.0592865530851743,-1.73329750204889e-05,-0.998241005129947
30.1104,6.9574825,-1.8154375,0.112781407083538,0.021799156358938,0.993380667719226
30.20685,8.0422125,-1.82099,-0.181524375096552,0.107222491849664,0.977523523239904
29.77095,9.47258,-1.76814,0.0594010734821708,-0.000255705201724588,0.998234164454421
30.355625,12.1792,-1.77546,0.100447402293834,0.0244139056502087,0.994642790444551
30.44455,13.213775,-1.673315,-0.0973305701925065,-0.0840955593312563,0.991692844083673
30.2615,14.2588571428571,-1.44763285714286,0.205225259877092,-0.0336690775344261,-0.978135463995842
30.1221857142857,14.4402142857143,-0.990503142857143,0.586808350600435,0.78620330541298,-0.193753250871571
30.5851,14.8243,-1.49318,-0.410135281724206,-0.768559595217826,-0.491024642236637
30.30905,14.821,-0.6882545,0.808927256364246,-0.55094321003158,0.205178637365376
30.9171,-4.66169,-1.87305333333333,0.291667192224968,0.0124307991660191,0.956439085468436
30.9217,-4.20665,-1.83708,-0.274687325366189,-0.016522554867016,-0.961391636360456
31.0234666666667,-2.89942,-1.84313666666667,0.0592992131095365,1.71048823824956e-05,0.998240253161539
30.8805666666667,-1.88707833333333,-1.83464833333333,-0.98118299156075,0.184068942070456,0.0582971837824133
31.00515,-0.83642875,-1.82783125,-0.0816402500059094,-0.0456716158426854,-0.99561487186828
30.8876,0.162499333333333,-1.83506333333333,-0.0673392702076271,0.00293023034951316,-0.997725832299637
30.8686,0.972472333333333,-1.83393333333333,-0.0593129659442297,-2.58285595900366e-06,-0.998239436239737
30.7571,2.14339,-1.82731,-0.0593020946898038,-1.04126642505586e-06,-0.998240082126698
30.84305,5.045715,-1.88652,-0.965641042585883,-0.149346518103829,0.212680498409967
31.0856,7.82822,-1.62892,-0.037016631391462,0.139508369201422,0.989528768618269
30.8644,9.46089,-1.61706,-0.103071455455653,-0.246865806433947,0.963552566642822
31.5665,11.4025,-1.98493,-0.0505679428734648,0.0201734757107824,0.998516857159303
31.1961,12.1328,-1.68892,0.0737693385461674,-0.150581681187021,0.985841387841549
31.2926,12.8883333333333,-1.63841,-0.170862264408773,-0.066866886377756,0.983023349726369
31.2047666666667,14.495,-1.34193,0.134500852009027,0.974337999526292,0.180485410734354
31.3231666666667,14.4839,-0.958433444444444,-0.344173519783729,-0.588884156430121,0.731272889272714
31.3869428571429,14.9400714285714,-0.593944,0.0502298116290951,-0.74665302881404,0.663314571366049
32.5513142857143,-4.82004142857143,-1.78732,-0.354967408186135,0.0225171533989926,0.934607466762611
32.46215,-3.813821875,-1.7503,0.829729256899746,-0.40324314861701,0.385933055513564
32.3258272727273,-3.04772454545455,-1.83793909090909,0.951374974017468,-0.288209312306986,-0.10872465733584
32.0606,0.589055,-1.68022,0.0542673907361893,-0.128484846587869,0.990225577583198
32.4375333333333,2.38852333333333,-1.88902666666667,-0.121991983767871,0.0542376025418738,0.991048050483371
32.6405,3.43983,-1.82489,-0.0156911015547998,-0.144030429740409,0.989448848925901
32.3936,5.36267,-1.81106,-0.0558211397420506,4.80313957754326e-05,-0.998440783447313
32.227375,6.2518825,-1.80172,0.0558307139733114,-5.19380604062673e-05,0.998440247926569
32.1665,6.39124,0.336838,0.973566662545079,0.227166030960411,0.0237391650765224
32.2163666666667,7.08601,-1.76366666666667,0.0958662894139626,-0.0975354130101231,0.99060410748338
32.1979,8.06235333333333,-1.79992333333333,0.110566884124203,-0.0267123114697064,0.993509645927512
32.29065,9.038705,-1.74911,-0.329298877827009,-0.944034307780132,0.0190124905248928
32.48475,10.08609,-1.81563,-0.0617300357500596,-0.0349067402841715,-0.997482291656864
32.1765333333333,10.9438,-1.76101,-0.0963976460242719,-0.050757282602117,-0.994047882198754
32.3245,12.378075,-1.74908,0.0164313789067342,-0.0959888285098525,0.995246780747634
31.7332,13.2483,-1.77241,0.177834321608743,0.122300186975789,0.976431061736385
32.3628666666667,14.3972,-1.48664833333333,0.135966202665657,-0.969703285036758,-0.202950069528446
32.2079222222222,14.4384666666667,-0.923721111111111,-0.00774881673487244,-0.683580150940895,0.729834318923708
32.3066,14.8295,-1.57775,-0.218576702794979,-0.641640373892452,-0.735201914841379
33.2068666666667,-5.49311,-1.31428333333333,0.969635602456678,0.111783687004519,-0.217511392272107
33.05920625,-4.8641428125,-1.4973765625,0.933421606730718,0.356245325287517,0.0425837093151302
33.3244166666667,-4.84081,-1.12511333333333,0.995975309981828,-0.0743335240148376,-0.050077031802392
32.865696969697,-3.91471666666667,-1.46794060606061,0.998719634977551,0.0453957106035819,-0.0223230860121023
33.56445,-4.091135,-1.17209,-0.291174776230164,0.148363712722989,0.945095475830016
33.02970625,-2.934619375,-1.539263125,0.852673066973565,-0.510188462371735,-0.112500549868252
33.3851,-3.07291,-1.16583,-0.301673702097407,-0.248955699919834,0.920333655225251
33.21718,-2.112802,-1.810522,0.440660667218134,-0.402650475393808,0.802303415817239
32.97842,-0.951286,-1.866476,0.240683425742446,0.0541359257915075,-0.969092766514938
33.1648,0.543854,-1.96963,-0.0697192499313429,-0.0686650685411073,0.995200650397324
33.285225,1.26802375,-1.860935,0.0559802498445184,0.0519237400619855,-0.997080807580469
33.2951,1.891995,-1.832575,-0.128057994943825,0.0421187702745154,-0.99087191862598
33.3517,3.0849675,-1.8646525,0.0301986625901014,-0.00226639218860918,0.999541346940794
33.2805,5.10637,-1.86065,-0.00558540601147488,-0.04641409266559,0.998906669935544
32.7462,6.957335,-1.830695,-0.97437146215913,0.203234567379349,0.0964155814793881
32.9336,8.77975,-1.84098,-0.127220359434352,0.0204689576036946,-0.991663250261908
33.08825,12.20805,-1.790825,0.0538650486036224,-0.018623613424875,0.998374537717149
33.1911833333333,14.2596333333333,-1.466325,0.225008966803824,-0.631773041225661,-0.741777452635462
33.4301666666667,14.4370166666667,-0.776097,0.280486963814796,-0.959466274873824,0.0274140567903457
33.41176,14.8336,-0.5823552,0.773309963547777,-0.57616264248959,0.264628625959378
33.029,15.88196,-0.4372276,0.779798407903539,-0.366579024110745,-0.507478336594893
33.1714882352941,15.9058352941176,0.217883764705882,0.865074678409607,-0.478452784727272,-0.150760517249158
33.2741875,16.0549,0.884419875,-0.942851921711947,-0.332344314955929,-0.024031438587028
33.3150333333333,16.9378222222222,0.463858777777778,0.11279010516771,-0.794895624005499,-0.596170562098772
33.0943,16.7079,0.807043,0.0448673558834626,-0.582065405583695,-0.811903186345955
33.7744,-5.40549,-1.41554,-0.0744908636864523,0.0438156832153523,0.996258649714831
34.0219,-5.649505,-1.18804,-0.0675976203748124,-0.0075317133563915,0.997684236125629
34.11001,-2.559029,-1.512776,0.144268979397872,-0.948869734771266,-0.280771594037936
34.5781,-3.31995,-1.20749,0.390209203851085,-0.242149478882311,-0.888313237043627
34.11354,-1.84518,-1.883456,-0.206247882421671,0.439336773542048,-0.874325460232195
34.369,-0.857237,-1.92153,0.0272612494967394,-0.0590923868179594,0.997880210293817
34.498,-0.181078,-1.80796,-0.0727428224295614,-0.00795334759769873,-0.997319019194446
33.78225,1.08665,-1.88872,0.983824729665167,-0.170481825117554,-0.0549986236541346
33.7668,2.08559,-1.88786,-0.0558218639169709,-7.48498991494565e-07,-0.99844074411468
34.7112,5.60493,-1.81911,-0.0523424530063971,2.54919820669719e-05,-0.998629193927071
34.2375,6.014485,-1.79427,-0.926766194186335,-0.375144760456095,0.0192569472065539
34.67665,7.08086,-1.817235,-0.0523487310850445,6.41432636564871e-05,-0.99862886311153
34.378775,8.0140175,-1.8316,0.996195550634128,-0.0594904424245498,0.0636813328762671
34.574425,9.1707675,-1.8116775,0.133049127225574,-0.0396957758296763,-0.990314180008442
34.42625,9.89891,-1.86379,0.18627294101666,0.0159099452662959,-0.982369210168268
34.5366,11.1184666666667,-1.80934,0.267122846707607,0.0138063299709039,0.963563578607846
34.00635,12.14185,-1.7812025,0.952471472234792,-0.304610410314173,-0.00325461320584116
34.1615666666667,13.1448,-1.62998,-0.116366126179942,0.0677577809724158,-0.990892429981967
34.18435,14.0764166666667,-1.53093666666667,0.25773241603435,-0.910456418009406,0.323485877018733
34.1337333333333,14.4475,-0.767228888888889,-0.690268466337778,-0.70660412491671,-0.15569218037648
34.17805,15.283375,-0.50608825,0.264576323256667,-0.0152003161312398,0.964244947905611
35.2973333333333,-2.41146666666667,-1.60266666666667,0.0440353655068574,0.699394525480308,0.713378009412158
35.1038,-1.98286,-1.83971,0.198110475668324,0.60856092189461,0.768378711166084
35.57975,1.074215,-1.864655,-0.0523403356336444,-3.56035033410862e-06,-0.998629305224457
35.4495,2.3988675,-1.85783,-0.0523434965962849,-9.79131594025517e-07,-0.998629139552375
35.324075,3.0901575,-1.85126,-0.639884038179098,-0.767739182569061,0.033540501364779
35.438,3.73393,-1.85723,0.0523318033874958,5.73516084464293e-06,0.998629752371378
35.072425,5.310335,-1.83805,0.0523429259455446,-2.42337789566199e-05,0.998629169169509
34.982875,6.3219025,-1.833325,-0.0523400507359799,5.23777032988406e-05,-0.998629318789275
34.77505,7.244515,-1.82238,0.0506151852672303,-0.0110745917133565,-0.998656826161393
34.942,7.78221,-1.8311,0.146929818574588,0.0188632971519889,-0.988967039104031
34.97305,9.02727,-1.894115,0.585352716745438,-0.796927643462108,-0.149226432258716
35.1279,10.7699,-1.96339,-0.173089716568675,0.0673863960053511,-0.982598098742098
35.6825,12.5969,-1.74425,-0.0654958149598321,-0.0665916672264012,0.995628368458209
35.5463,13.9655,-1.73711,-0.691859820054921,-0.555898446235365,0.460767736356051
35.023325,14.511575,-0.85642925,0.574399515270055,-0.771578909198627,0.273370049086185
35.23675,14.69865,-1.41362,0.870210420569343,-0.169204409715476,0.462713401216525
35.2172,14.8078,-0.7367795,0.226675717048451,-0.714847104444689,0.661522287279586
35.594775,18.507025,0.58894325,0.0241433280272711,-0.999288465871972,-0.0289769164509947
35.1880833333333,18.2199166666667,0.898908666666667,0.548927106762476,-0.531750840555652,0.644918657684622
35.4383214285714,18.9551785714286,0.519700071428571,0.974717135054096,7.93231930385352e-05,0.223442387070506
35.3209,18.89146,0.9348724,0.508776891961975,0.545790811628444,0.665776587262932
36.1875666666667,-2.51903333333333,-1.30561,0.244766736460141,0.718165310080146,0.651404507291851
36.23175,-1.97501,-1.8353,-0.217312282532293,-0.548575906810015,-0.807365992798913
36.54965,-0.9831645,-1.91549,0.0523317188291392,-2.27613322992259e-06,0.998629756816412
36.605,-0.336249,-1.91839,-0.0523285128539272,-2.40676931612116e-06,-0.998629924815346
36.1712,1.0905945,-1.895655,-0.0523413290543683,-4.0264248991815e-06,-0.998629253154848
36.3236,7.04683,-2.03073,-0.0270397263342779,0.0665018369664762,0.997419850855121
36.0636,12.3051,-1.699355,-0.0302962182017677,-0.103416299984861,0.994176648317648
36.2067333333333,13.2543,-1.64312,-0.0154212162227975,-0.0555995550940092,0.998334050087223
36.5188,14.636,-1.40165,0.331683340221289,0.911555527995324,0.243007574369226
36.497575,14.547125,-0.9546095,0.851612323798977,0.520087888864109,-0.0653072569518922
36.26724,14.71146,-1.392142,-0.125812773494736,-0.981065807434471,-0.147244787712544
36.26982,14.80138,-0.809025,-0.293961272725503,-0.744293959071474,0.599677640593105
35.7858,18.5234333333333,0.581714666666667,0.605462390976519,-0.697474847973984,-0.383332922609921
37.006975,-2.3818175,-1.61539,-0.40668564042938,0.838186008389044,0.363388229321461
37.18665,-1.8444975,-1.88359,-0.43886386101337,0.760093582460738,-0.479224641894007
36.845,-0.871079,-1.93096333333333,-0.0523305491805703,-3.402675651871e-06,-0.99862981810623
37.2737,2.8921,-2.08393,-0.280677166139391,-0.0536400707172069,0.958302181580223
37.68,6.38689,-1.711,0.325925875789776,0.125671825422947,0.937005291226006
37.6325333333333,7.19613,-1.84046666666667,-0.102771877656619,-0.0204236304880841,-0.994495257143351
37.5016,8.19599,-1.83401,-0.0488597376822696,7.4353182555241e-05,-0.998805647013083
37.45445,9.27534,-1.8316,0.747186082493123,-0.66360515787833,-0.0366217499016083
37.2532,9.84883,-1.82169333333333,-0.048804473393111,0.000129162306043655,-0.998808343324143
37.3358333333333,12.0175333333333,-1.78142333333333,0.0289844783109905,-0.123365208274431,0.991937964493973
36.8373,12.7131,-1.67195,0.0390028463165667,-0.0710325128799095,0.99671117185129
37.1344,13.2042,0.647799,0.375541939038194,0.72318791697935,0.579627025559111
37.32756,13.10908,0.8595966,0.398569480218416,0.562964062080481,0.724026128150266
37.4358,14.3992,-1.4813,-0.283070734744306,-0.760675333668792,0.584160933201793
37.13714,14.56818,-0.8543652,0.271791705690577,-0.895417409392653,0.35264278196832
37.08635,14.9398166666667,-0.474397,-0.147362433284909,-0.296653147204724,0.943547149595548
36.8368,15.6571,-0.513772,0.347521369013419,0.201712655435194,0.91571879019507
37.3861333333333,21.20385,-0.476965333333333,0.214671018267786,0.8972319623845,-0.385864172464263
37.3648142857143,21.2609357142857,0.213381071428571,-0.0597292729463593,-0.942116463320319,-0.329922693208748
37.154625,21.270075,0.8727055,-0.481133947244396,0.840464761697479,-0.249257114550071
38.0409,-4.181705,-1.32841,0.0408901678699244,-0.163115780120332,0.985759218291823
37.9323,-3.456265,0.529494,0.41027329092299,0.204019059358337,-0.888848721759647
38.3128666666667,-3.69492666666667,0.891707666666667,0.0531341378852938,-0.668134325885618,0.742141014878276
37.95475,-3.26773,-1.32541,0.868916030757055,-0.460489422624097,-0.18147843713436
38.0771176470588,-3.23484882352941,-0.687144705882353,0.970472602077859,-0.132132997034912,-0.201801386791075
38.3163875,-3.12992833333333,0.273340375,0.734812358364929,-0.67393227460153,0.0765903861106527
38.4577,-3.07244333333333,0.8727615,0.361647243511438,-0.932003833001361,-0.0240858159785043
38.33206,-1.923034,-1.767162,-0.168117786632957,0.700105908689567,0.693965508102234
38.31962,1.1276132,-1.927244,-0.689442450874045,-0.0694561531837696,0.721002739050069
38.29765,2.1352975,-1.839455,0.394221649129472,-0.917565581387485,0.0516013101644272
38.18625,3.13940666666667,-1.86762166666667,-0.0873794584741706,0.010811013748619,0.996116435070965
38.02465,6.215535,-1.85968,-0.126220161296282,-0.0503581370453658,-0.990723235275958
38.0083,7.11127333333333,-1.85885333333333,0.00567905505200285,-0.0947350839007077,-0.995486319449967
37.73965,8.093005,-1.845655,0.467916271457837,-0.883474812559135,-0.0229481693953283
38.3642,9.0196,-1.87614,-0.0488707497191487,9.63729669384294e-05,-0.99880510638169
38.2958333333333,11.3473666666667,-1.82768,-0.0294385899162434,-0.0702837689380206,0.997092554002691
38.426,12.3652,-1.74427,-0.0058492478833445,-0.0796806916986766,0.996803277316853
37.7238,13.6084,-1.44834,-0.800573897244169,-0.255555728025561,0.542008030313766
37.7655,13.096,0.790651,0.0427145713353,0.561800287039149,0.826169415361263
38.02742,14.26246,-1.513384,-0.402661930806622,-0.813592446196606,0.419440938596729
38.1470090909091,14.487,-0.858869454545454,0.434911870028441,0.543558858238168,0.717910463037825
38.1977666666667,14.8089666666667,-0.443762,0.0101083600021302,-0.419212681616374,0.907831784324649
38.188,18.8626,0.931416,-0.70838680848056,0.0280760307589408,0.705265812348471
37.8457777777778,21.1523888888889,0.483109666666667,0.903744874575417,0.283141261403192,-0.321054867226262
38.0737,21.2830666666667,0.839340666666667,0.585471566907188,0.477175732340136,-0.655382609480063
38.7976,-4.03336,-1.35484,-0.0300393622547838,-0.370602964866358,0.92830548805207
38.8638,-2.772525,0.610366,-0.93951599756218,0.27293711396446,0.206917911611084
39,-2.67975666666667,0.816933,-0.229812733455032,0.0747036977560456,0.970363573658605
39.0732333333333,-1.99971666666667,-1.81976333333333,0.025641389077354,0.207869608286994,0.977820405348955
39.379025,-0.90477525,-1.8917575,0.120505511071744,-0.0117782327945241,0.992642783197247
38.8242,0.866075,-1.89882,0.0488488361679286,3.68175077767116e-07,0.99880618300294
39.3146,10.3921,-1.78497,0.0119188668912196,0.0308047671831562,0.99945435460096
39.2658,11.1347,-1.782655,-0.0160948735292123,0.00760036221065649,0.999841582222077
39.6782,12.4625,-1.80117,0.0961567987926896,-0.228223559978468,0.968848737789701
39.2229,13.37925,-1.574245,0.759866200402054,0.501279339395456,0.413911079075931
39.0171,14.0778,-1.56593,0.530550462329409,-0.325200572619444,-0.782790389880992
39.145,14.5277,-0.978624833333333,-0.598083582012421,0.167121134235857,0.783815383504886
38.8851,14.6452,-1.49276,-0.183160818275604,0.912264061922173,-0.366369207185686
39.0995,14.8961,-0.454886666666667,-0.0159330478046079,-0.833524742066225,0.552252335758835
40.1853166666667,-2.032525,-1.777245,-0.0493471893860474,0.560495671299334,0.82668582747886
39.8108,-0.835827,-1.94707,0.171044876016192,-0.0566818518308131,0.983631444221684
40.196025,6.245565,-1.8252625,-0.0102108614830379,-0.0128027378990649,0.999865905114312
40.29675,7.1575325,-1.82981,-0.987666664113511,0.00533563434929804,0.156480323379588
40.487,8.0561725,-1.8384125,-0.0966137455482607,0.0167740373953287,-0.995180594586026
40.3836,9.075575,-1.904565,-0.00244844880950744,0.998508577827562,-0.054540123791641
40.2934,10.3967,-1.829435,-0.0800421250052651,0.0262896873059189,-0.996444735329561
39.9788,13.0166,-1.674945,-0.000562409385517961,-0.268646024796018,0.963238805830091
40.16845,14.0152,-1.54231,0.113864625352544,-0.327792382226064,0.937862997056546
40.3738,14.8822,-1.40896,0.0967009319948708,0.975987046335988,0.195187640837419
40.2096666666667,14.9875666666667,-0.467369,0.105279952538179,-0.677723753646816,0.727740781691138
41.4592,-20.081325,0.68609125,-0.558281121909285,-0.633878125919962,-0.535276293515701
41.6954,-19.0285,0.726692,-0.333841900927825,0.0179723410567675,-0.942457733875549
41.322425,-2.8653825,-1.4072725,-0.229847563854983,0.368424735444783,0.900795932330054
41.265375,-2.20713,-1.5485775,-0.0816560503640096,0.420947578358195,0.903402139533288
41.3435,1.57353,-1.8774,0.0453541152858009,-5.56038973223427e-06,0.998970972649218
40.8945666666667,2.25416666666667,-1.85701333333333,0.0453626167102326,-6.45455964718933e-07,0.998970586656476
41.5141333333333,2.89084666666667,-1.88514666666667,-0.0453678794335588,-7.20523777315346e-06,-0.998970347639902
41.3932,3.8664,-1.87966,-0.0453649469609742,-3.44985836681425e-06,-0.998970480832805
40.8598,6.92704,-1.99833,-0.312349257689092,0.0274380981604445,-0.949571004185791
40.91835,12.53735,-1.78602,0.00965108577947217,-0.19821549306422,0.980110950276848
41.3329,13.29765,-1.65959,0.0403229228969648,-0.103387690189522,0.993823448810864
41.3068,13.9307,-1.73049,-0.0544592075529264,0.198148711172145,-0.978657898845927
41.2536666666667,14.8805333333333,-1.48897666666667,-0.0797925715363286,0.996631809158538,-0.0189257100527101
41.0558727272727,14.8357454545455,-0.650159545454545,-0.745751981027244,0.0181489707987061,0.665976424247052
41.947725,-19.7536875,0.41982875,-0.261636146176324,-0.1160887687183,-0.958159655167901
42.0761,-19.8727333333333,0.879856333333333,-0.389128310565602,0.334677113343116,0.858236790006511
41.93532,-19.1551,-0.6133636,0.847145863038518,0.415067360387803,-0.331757400938435
42.4468125,-19.1730625,0.296377625,0.0870279770385338,-0.956070813363471,0.279919150911637
41.8549,-18.8823,0.875467,-0.333841900927824,0.0179723410567675,-0.942457733875549
41.936,-2.97383166666667,-1.34234833333333,0.0816376908441994,-0.151609215030522,-0.985063415903492
42.2924,-1.72106,-2.06844,0.394768920331385,0.0735489438782593,-0.915831890902902
42.37695,-1.0563385,-1.924325,0.144807912014383,-0.10293893118299,-0.984090567511415
42.0516333333333,1.15839766666667,-1.90955333333333,-0.0217368437473239,0.0357788788057975,-0.999123306431846
41.74625,3.4855,-1.89569,-0.0453649469609742,-3.44985836678736e-06,-0.998970480832805
42.61,9.48519,-1.78574,0.122110562382201,-0.0216086586625475,-0.992281248651565
42.55315,10.8016,-1.931815,-0.109531391933994,-0.00388861358467544,0.993975730521319
42.2734,12.3066333333333,-1.72207333333333,-0.0112968443350192,-0.112579968174767,0.993578447871047
42.5602,13.3635,-1.63443,0.00707675162875871,-0.0871517115006436,0.996169914607389
42.57215,14.02505,-1.56021,0.721978852354128,0.270073664057549,-0.63702963254149
42.4583333333333,14.4958333333333,-0.987790333333333,0.883770465807292,0.162681710073357,-0.438730469621578
42.20045,14.71945,-1.325495,0.41328911176957,-0.842270263350673,0.34608223526773
42.2019,14.8345571428571,-0.631375714285714,0.815016390836973,-0.352248329003339,0.460075425752592
42.3294,16.4812,-0.29527,0.947232957020594,-0.31989949090401,0.0203479938415626
42.3962625,16.45465,0.4438595,0.719946738941492,0.694029311273947,-9.04440315192246e-05
42.3211,16.4815,0.885762,0.585657413013275,-0.15969302144547,0.794671965960933
42.3268,16.6935,-0.295239,0.947232957020594,-0.31989949090401,0.0203479938415625
42.42508,16.73296,0.3849456,0.970839471972733,-0.225635922697101,-0.0809885797401896
42.3533,16.7075,0.886398,0.777544365887498,-0.497023817279792,0.385216931265011
42.86265,-18.77405,0.6727015,0.669907066900706,-0.738574454143651,-0.0757119369908182
42.96735,-18.82145,0.8988685,0.576679248484939,-0.796464780667555,-0.181892543890698
43.0762,-18.3102,0.751023,0.880916512378932,-0.411377204414652,-0.233997636539611
42.8054666666667,-1.85427,-1.84390666666667,0.639205213235806,0.36350103092369,-0.67770472618212
42.7353,-0.560717,-2.09011,0.144807912014383,-0.10293893118299,-0.984090567511415
43.6052,2.00312,-1.8276,-0.00162550457361684,-0.0690521269304843,0.99761172883104
43.2972,3.18584,-1.81469,-0.0318145980648412,0.00856638094650807,0.999457076850953
43.1765,6.96770666666667,-1.80959333333333,0.0418848020571749,-3.0867974956217e-05,0.999122446151521
43.0321,8.34173,-1.803495,-0.0418833923468967,3.7290190412046e-05,-0.999122505028767
43.1082,8.88643,-1.80666,-0.0418915334709774,3.89979941457299e-05,-0.999122163652977
43.168,11.31795,-1.80898,0.0834602434357113,0.0795199721071927,-0.993333258177598
43.06745,12.5374,-1.729245,0.011445923802206,-0.0932747551767164,0.995574613414302
43.2395,14.5765,-1.35822,0.248690218045816,0.684076566251996,-0.68570578745786
43.1711833333333,14.5193166666667,-0.755485166666667,-0.595777060337362,-0.719898454873788,-0.356084131977409
43.2858,14.6774,-0.756134,-0.758899503657551,-0.533424711081516,-0.373536639375475
42.8423,16.36185,0.8967225,0.298620351644783,0.954009366601324,0.0263061593640635
42.7206,17.0685,0.894047,-0.506382040663234,-0.0595553302896684,0.860250191239634
44.7154,-17.8655,0.935794,-0.147480519575261,0.0883338112670852,0.985112498211672
44.01565,0.8950175,-1.99885,0.0143932363095666,-0.158221623054877,0.987298715053563
43.8554,3.57411,-1.83809,0.041875041354814,4.69533250335719e-07,0.999122855764651
43.7939,4.26389,-1.83551,-0.00520018044116435,0.0312819351519495,0.99949707286041
44.5723,5.26237,0.778007,0.991572810775895,-0.129199110171031,-0.00953681608321108
44.7022,6.85409,-1.87355,-0.000598232694975528,-0.0159306222283862,0.999872920621945
44.6759,12.6683,-1.87205,0.0184780092834181,0.0776838833269487,0.996806790428399
44.4195,14.6292,-1.39534,-0.0283105463147541,-0.990600479733089,-0.133825268615211
44.4125,14.573375,-0.813636,-0.219562521524748,-0.971639330061152,-0.0878026845831597
44.6396,14.7035,-1.55819,-0.150624436545991,-0.98749941952662,-0.0464454039684293
44.29895,14.68045,-0.7736565,-0.0925117459988085,-0.994964123158464,-0.0385742204038077
43.8332,20.4703,0.916664,0.292744288365656,-0.955924701956366,0.0225553944527203
44.8315,-1.64714,-1.879,0.0418802716694293,-5.88155166972304e-06,0.999122636521815
45.1048,-0.769133,-1.89045,-0.0179055059265489,0.0875184053437625,0.99600196866452
45.5949,1.1963,-1.91099,-0.0433404618729373,-0.0148870309135825,0.998949438497874
44.9665,1.71116,-1.88466,0.00487595532531405,-0.0410139947442493,0.999146674565243
44.9028,3.926185,-1.881985,0.0418758239709436,-1.65224037261547e-06,0.999122822962234
45.2446666666667,14.2063666666667,-1.6846,-0.00816577982703055,-0.486785437826252,0.873483404284318
45.3888333333333,15.0733333333333,-0.422316666666667,-0.129407073035276,-0.0985271918524859,0.986684449007942
46.1723,-1.51451,-1.9352,0.00160076989998744,0.0305996897606465,0.999530438016912
45.95575,-0.8719395,-1.92612,0.041878766102308,-3.08658934433659e-06,0.999122699642152
46.6702,7.15483,-1.79286,-0.0259269610319892,0.00213226229040647,0.999661565805733
46.6338,9.80323,-1.79137,0.0383939463481963,-4.768747312206e-05,0.999262679484087
46.0957,11.987,-1.77053,-0.0387606061262346,-0.0804643370935802,0.996003567196834
46.0932,12.7206,-1.77036,-0.0387606061262346,-0.0804643370935802,0.996003567196834
46.5416,14.0762,-1.54356,0.640842522944416,-0.467094930042607,0.609215222326829
46.33418,14.97957,-0.6317359,-0.4864511599684,-0.870727985485458,0.0720974636019487
45.9851,15.3411,0.962806,0.962685669861605,0.243098375395294,-0.118909549335964
45.8603,15.698,-0.320004,-0.103974602402198,-0.0527059121672629,0.99318244491026
46.2176,15.8236,0.967626,0.962685669861605,0.243098375395294,-0.118909549335964
46.2761,21.36195,-0.5645985,0.922540729021075,-0.33465981188842,-0.192149456424085
46.38132,21.31134,0.1289358,0.929966646000232,-0.362345499112614,0.0621914511802921
46.2160333333333,21.1735,0.859321,0.883105574784223,-0.43885473107845,0.165924889016352
46.6071333333333,21.7611,0.324949666666667,-0.880869900259995,-0.215342046207973,0.421540059722572
47.3831,7.83758,-1.82023,-0.038391999695162,3.09409253428094e-05,-0.999262754935891
47.21905,9.153825,-1.8138875,-0.205447415375295,-0.978636643728672,0.00785360217291218
46.9043,12.0004,-1.80161,-0.0241455221534688,-0.0527009136905312,0.998318389821664
47.1213,12.6503,-1.80989,-0.0245858700173569,-0.0641570987808897,0.997636908735593
47.3674,13.7862,-1.65368,0.0073591840033958,-0.109584133122534,0.9939502805365
47.1246666666667,15.0336,-1.42568,0.0506954710574204,-0.919000372605768,-0.390983739258713
47.62585,14.95105,-0.872741,0.25420068373299,-0.967148810524507,-0.0022783087392399
47.6771,15.90235,-0.1663475,0.27256769155405,0.509364290175643,-0.816244371138178
47.6859,16.3252,0.831934,0.37281432683444,-0.581863162311437,0.722803388240479
47.3268,19.632,0.990307,0.795254931526458,0.598163117062847,0.0988457347006345
47.1306,20.0351,0.9861,0.795254931526458,0.598163117062847,0.0988457347006345
46.7662,21.5869,0.325975,-0.618296761403645,-0.577859933561146,0.532716633889418
48.527,-2.16513,-1.86422,-0.0212548754946672,-0.000847109686390061,0.999773730737553
48.6131,1.08395,-1.86753,-0.0595718025852521,-0.011566472910659,0.998157010214901
48.166,1.83266,-1.85035,-0.0658015991181532,-0.000740224005784901,0.997832451678094
48.1707,4.02077,-1.850535,-0.0556446728567249,-0.0277038247285854,0.998066214475811
47.8553,10.6513,-1.83826,0.0949650299786874,0.0202927242787905,0.995273755517793
48.6511,12.2454,-2.0388,-0.0269657468447945,-0.274440803385494,0.961225828790627
47.9231,12.8639,-1.6732,0.0763350213115845,-0.164737405002713,0.983379149623548
48.39005,14.2657,-1.520295,0.965318403669397,0.150927870373131,-0.213028536778054
48.35285,14.9923,-1.519885,0.229322476528573,-0.544693869559985,-0.80667204626327
48.1657,14.9401166666667,-0.672872166666667,-0.157612888362991,-0.980549640558869,0.116964010797119
47.9689,15.373,-0.167377,-0.0953309470849579,-0.532203427661135,0.841232145197521
48.8797,-2.37359,-1.87777,-0.0212548754946672,-0.000847109686390164,0.999773730737553
49.1841666666667,13.047,-1.65972666666667,-0.054775403725064,-0.178073360506213,0.982491492800208
49.3416,15.109,-1.37779,0.217464211200508,-0.973690367419072,-0.068091007058592
48.8805,14.9663,-1.19422,-0.0551966961989317,0.991112842481317,0.121031641306422
49.9654,3.0828,-1.57023,-0.0658015991181531,-0.000740224005785044,0.997832451678094
50.34805,14.27175,-1.67001,-0.398129902254516,-0.506159754933392,0.765045674072194
49.913225,15.189625,-0.60960125,0.0583797955873921,-0.985595732625609,0.158722560769929
51.2623,13.5426,-1.6107,0.0205956695945021,0.0761183328422702,0.99688606059031
50.8587,14.0322,-1.59796,0.0205956695945021,0.0761183328422702,0.99688606059031
51.1055,15.2584,-1.33782,-0.0448738976701467,-0.992080177606981,0.117316897790516
51.367525,15.29665,-0.89630025,0.972077293789138,-0.185182727328218,-0.144128735507079
51.23634,16.5313,0.2685643,0.469165659828431,-0.857737531882309,-0.210166386556457
51.34795,16.34725,0.8959345,0.868866403812877,-0.126101270625872,-0.478716661368517
51.19815,16.74235,0.625591,0.811067501376073,0.22576674560322,-0.539628469218688
52.24,-13.7293,-1.82395,-0.00294162413046912,0.0119985823221025,0.99992368752307
52.11445,13.11085,-1.637525,0.00390654366374166,0.0101477140923642,0.999940879660044
51.7996,13.9027,-1.62756,-0.0236126331465569,0.0203760389667197,0.99951351196065
52.6221,15.3106,-1.28571,-0.322289745194606,-0.889530445134399,-0.323828515299987
52.15805,15.28965,-0.72851725,-0.114919892790921,-0.861224082986502,0.495062114410891
51.9121,15.96545,-0.3622965,0.141233968243348,-0.479514548670398,0.866093969398045
53.0115,-10.4186,-1.85111,-0.0345489148301645,0.0196370254579338,-0.999210067861219
53.283,-7.88175,-1.86065,0.040340818733793,0.0708616521662764,-0.996670078108174
53.5773142857143,-3.80924857142857,-1.36291428571429,0.978735722686022,0.200884386558349,0.041495160866624
53.4142866666667,-2.733612,-1.51640466666667,0.970248016535073,-0.161429399724495,0.180442055281872
53.6479,-3.02684,-1.12376,0.880821562631075,0.375435490531243,-0.288446818761651
53.38046,-1.791744,-1.900884,0.562202919244746,-0.75743995955359,-0.33198280868765
52.76245,15.15245,-1.38126,-0.322289745194606,-0.889530445134399,-0.323828515299987
52.94066,15.1484,-0.5923492,-0.196412329880068,-0.86031595249352,0.47040265577083
53.6279,15.573,-0.187147,0.916917331024779,0.393183522563297,-0.0683324641083072
53.6795,16.2769,-0.187318,0.896391804621457,-0.249778015535283,-0.366186667647449
54.39255,-9.472375,-1.899375,0.00338062473915811,-0.0379121582144433,0.999275357264401
54.1999,-5.57306428571429,-1.62244571428571,0.992876510993629,0.0444620640781697,-0.110541208492704
54.3033666666667,-5.48325333333333,-1.074114,0.698957938204813,-0.158378254485664,-0.697405283265441
53.96255,-5.07291833333333,-1.50725833333333,0.960922394731854,0.104445770490697,0.256357625846013
54.22104,-5.045774,-0.9839456,0.986367233393539,0.0916199488093482,0.136694790931285
53.7686666666667,-4.02537666666667,-1.50189333333333,0.993869782054541,0.0584999490368233,0.0938115786113225
53.9270333333333,-3.84934111111111,-1.04566877777778,0.954591808391292,0.227521430876756,0.192323887866373
54.3309,-2.63669666666667,-1.13807,0.261601806088944,-0.300263270631243,-0.917282106748426
54.0721428571429,-2.04609428571429,-1.56448142857143,0.548353496868493,-0.796078900560432,0.256060201035985
54.6331,-2.00594,-1.1444,0.136240445154397,-0.692922851561293,-0.708022925397404
54.1536,-1.24237,-1.796325,0.265195239454596,-0.67189267917762,0.691542994063376
54.4453,13.0172,-1.71081,-0.102065769652797,-0.181686084039164,0.97804536987386
54.2936333333333,14.1917,-1.64280666666667,-0.506623963587459,-0.292174948351201,0.81115100879855
53.9003,15.2761,-1.50521,-0.198396662213111,-0.721231204196023,0.663674856022625
54.0695666666667,15.1653666666667,-0.62937,0.598330602579588,0.778103294619478,-0.191195588126559
53.8565666666667,15.4100666666667,-0.0627646666666666,0.916712469170055,0.331351416934493,-0.223258790115069
53.721,15.8296,-0.37494,0.929494210446334,-0.148181601707506,-0.337761344239012
53.97465,16.2505,-0.0942515,0.896391804621458,-0.249778015535283,-0.366186667647448
55.072,-5.94361,-1.7307,-0.580665544901443,-0.810929626225094,-0.0722541782510858
54.7435,-1.79478,-1.52912,0.254403770065986,-0.913617199690443,-0.317147180668545
55.0551,12.9343,-1.72999,-0.0962619785614993,-0.156682449549407,0.982946713452272
55.17445,13.9955,-1.54092,-0.906746902686734,-0.350942643132408,-0.233771930948208
55.5008,15.31055,-1.453045,0.357820421268606,-0.933508329184226,0.0229509360774781
55.2796,15.23544,-0.848356,0.451916281180778,-0.572048788312098,0.684493870384824
55.6023,20.0177,0.969938,-0.0116451716170294,0.144096191176502,0.98949516303337
55.3321,22.04638,0.1928632,0.630235819424503,-0.76575431100914,0.128152827066918
55.45,22.1514,0.773562,0.690748873519956,-0.721710667690491,-0.0447180709854332
55.772,-1.82833,-1.36304,0.185356457532954,-0.693989193988211,-0.695716883709478
55.8388,-1.83037,-1.16966,0.185356457532954,-0.693989193988211,-0.695716883709478
56.251,4.1374,-1.76776,0.0525594712500496,-0.0112242435470878,-0.998554714744621
55.9514,5.44548,-1.75834,-0.0314130095787654,1.11583278656902e-05,-0.999506489576079
56.0933,12.2503,-1.76266,0.074991515956946,0.0887106976961889,0.993230428777096
56.2971,13.22675,-1.670165,0.0300503383085203,-0.189068805634184,0.981503929642468
56.343775,15.228025,-0.68824025,0.999881153123901,0.0129378877513365,-0.00838395420745038
56.35075,15.287925,-0.19666125,0.790692737569215,0.35831183613751,0.496404696632764
56.4908,15.6847,-0.394295,0.930919100142389,0.363095358209476,0.0393876863603022
55.9772,21.2368,0.976345,-0.134309861327423,0.170509690856889,0.976159467748019
