41.064,14.8113,-1.43312,0.0967009319948708,0.975987046335988,0.195187640837419
35.2323,14.6936,-1.22904,-0.0135075704777619,0.920285687554757,0.391013808991008
31.0225,14.4941,-1.08158,-0.236684857379675,-0.96352346361425,0.124911221881632
27.8619,14.2246,-0.970782,-0.141174554341109,-0.989049216602462,-0.0430278089686988
25.6781,14.2626,-0.893974,-0.126297604749453,0.968201483025839,0.215950927993186
22.7124,14.112,-0.78954,-0.146971868705491,-0.985266114466923,-0.0874640125564164
23.485,14.1407,-0.816786,-0.055553014200871,-0.993975065770261,-0.0944850847499413
24.5234,14.0735,-0.853447,-0.691786443772912,0.470448738849185,-0.547822508050955
26.7988,14.3983,-0.933311,-0.374048357477155,-0.926932002344618,-0.0297470889002416
29.1106,14.3524,-1.01456,0.735965625088127,0.601279368154563,-0.31115545973081
32.5527,14.385,-1.13528,0.120097629554704,0.976150582385503,0.180849660999918
37.1594,14.5899,-1.29655,-0.172031848470966,-0.985013412912547,0.012394333142129
42.6785,14.3892,-1.48967,-0.301190476471393,0.444379847113446,-0.843688833849521
50.4532,14.3024,-1.76145,-0.183708115706698,-0.172444406705546,0.96773666605098
57.0602,12.9341,-1.9924,0.157982466655645,-0.177740866154639,0.97131340190898
15.7678,1.72285,-0.550623,0.802181694301497,0.594516783185662,0.0552659374131242
41.7191,-3.34403,-1.45686,-0.27357123055986,-0.0417820807371524,0.960943827462999
16.2612,-3.32899,-0.56782,0.644368359610708,-0.0352598926626298,-0.763901928981742
17.7995,-6.00115,-0.621284,-0.0604060157285538,0.217199770597376,0.974256317873407
17.6243,-6.91983,-0.61494,0.393100864866914,0.321290289752892,-0.861535988657112
18.1587,-8.95279,-0.632869,0.683417387290424,0.492627024162929,0.538757171472926
18.0549,-9.70048,-0.628793,0.888756349950848,-0.0975616317241736,0.447877079607076
18.3524,-9.20837,-0.639534,0.969520778155405,0.0984677776300964,0.224351415180578
17.8003,-8.16539,-0.620665,0.36574923575079,-0.928811684704425,-0.0594672254627793
18.1384,-7.41611,-0.632788,0.0075604521895596,-0.0328453309104228,0.999431850503112
17.7021,-6.24539,-0.61783,-0.15677394860507,0.018921550336702,-0.98745324141026
41.9907,-2.70163,-1.46635,-0.0871410282591669,-0.174014775140037,-0.980879859731506
15.7361,1.78205,-0.549515,-0.522481445444609,-0.718718943302766,0.458755075943437
46.5881,13.9135,-1.62642,-0.117469259366976,-0.573738485394299,0.810570862714192
35.9465,14.6972,-1.25406,-0.301362580758414,-0.945366802000903,-0.124347113328833
30.6048,14.5606,-1.0669,0.549113888754449,0.705655066157093,-0.447800027672838
27.5292,14.2982,-0.959049,0.625601214628806,0.779148429698633,0.0393807662840212
24.3705,14.2133,-0.847955,0.725715682687042,-0.115089321187623,0.678300225601211
26.2812,14.358,-0.91513,0.735698884991314,0.676601138107054,-0.0309523914225785
28.2508,14.1749,-0.984466,-0.177631209194906,-0.974587398871181,0.136479139363713
31.4067,14.4069,-1.09509,0.157771563598259,0.985294157743386,0.0656014972124232
36.5583,14.6498,-1.27549,0.331683340221289,0.911555527995324,0.243007574369226
47.3674,13.7862,-1.65368,0.0073591840033958,-0.109584133122534,0.9939502805365
15.6298,1.83231,-0.545802,0.934309050543485,0.013599108112285,-0.356204523176058
29.2691,-0.0383788,-1.0221,0.434527479965596,-0.00387052778579972,-0.900650258518482
41.2035,-2.48827,-1.43886,-0.140179374144723,0.701833941372303,0.698411670723086
17.0959,-4.06423,-0.596935,-0.249549333715766,0.89100525276414,-0.379255546549722
16.8978,-5.17552,-0.589897,-0.173186340347118,0.0706301090347357,0.982353235458057
17.6828,-7.3746,-0.616848,-0.0305938195741887,-0.0132105520216254,0.999444595522506
18.0453,-8.58524,-0.629068,-0.154925535220514,0.392497176709644,0.906611297531415
17.5546,-6.47081,-0.612618,-0.210600398438547,0.104237037429743,0.971999028911755
17.5283,-5.50299,-0.611886,0.082426609134534,-0.031652135764884,-0.996094371236031
41.458,-3.15902,-1.44775,-0.27357123055986,-0.0417820807371522,0.960943827462999
48.8069,13.4677,-1.70402,-0.0196051428288625,-0.0949612670639758,0.995287896104572
44.6396,14.7035,-1.55819,-0.150624436545991,-0.98749941952662,-0.0464454039684292
37.7615,14.5223,-1.31764,-0.421138977549629,-0.709529821438943,0.564986189280123
33.1564,14.3755,-1.15644,0.397112847705252,-0.917637712456297,-0.0155696777551588
29.8618,14.4641,-1.04088,0.98085260310409,-0.153861122130861,-0.119393995161246
27.0312,14.2805,-0.941556,0.37767278207996,0.923785260468197,0.0631194282110409
32.0075,14.4124,-1.11615,0.0490804887409184,0.937722933727834,0.343899411435692
37.9321,14.2843,-1.32367,0.867392264517944,-0.487207325447414,-0.101290085816976
45.1453,14.5209,-1.5759,-0.0629500370274901,-0.715405553506438,0.69586793779451
53.6026,-1.5467,-1.87184,0.565574401967229,-0.634620825935577,-0.526670678060074
37.911,-3.33917,-1.32388,0.868916030757055,-0.460489422624097,-0.18147843713436
53.283,-7.88175,-1.86065,0.040340818733793,0.0708616521662764,-0.996670078108173
16.2725,-3.39803,-0.568209,0.644368359610708,-0.03525989266263,-0.763901928981741
17.3509,-4.9186,-0.605764,-0.407718820052477,0.365771547255297,-0.836646005783498
17.6745,-6.097,-0.616895,-0.156773948605069,0.0189215503367019,-0.98745324141026
17.9348,-7.1869,-0.625731,0.0075604521895596,-0.0328453309104229,0.999431850503112
17.7955,-5.17938,-0.621273,-0.00275774841987176,0.00418245953521665,0.999987450849204
54.1772,-9.54509,-1.89185,0.00973030275499626,-0.0405684084421561,0.999129383736044
33.5762,-3.89157,-1.1725,-0.301379518045966,0.144210343278792,0.942535815231334
41.1631,-2.32335,-1.43745,-0.140179374144723,0.701833941372303,0.698411670723086
29.3813,0.0770512,-1.02602,-0.620608542593383,0.0963009159505652,0.778184534957615
15.6225,1.89378,-0.545546,0.930250422595827,-0.0388682020178655,-0.364860814739243
45.4481,14.2684,-1.58653,-0.108405487382501,-0.488761621056282,0.865656010253379
40.3738,14.8822,-1.40896,0.0967009319948708,0.975987046335988,0.195187640837419
34.1637,14.5292,-1.19167,-0.0232761094822591,0.921258033184302,0.38825488924257
47.9231,12.8639,-1.6732,0.0763350213115845,-0.164737405002713,0.983379149623548
53.8079,-1.34081,-1.87901,0.490043300188157,-0.844675652022823,-0.215361572293011
37.9985,-3.19629,-1.32694,0.868916030757055,-0.460489422624097,-0.18147843713436
33.3559,-5.06824,-1.16479,0.887034504446345,0.461518098526384,-0.013070296638515
16.1491,-3.43862,-0.563898,0.527489757814048,-0.838677838896651,0.13555086847719
17.3587,-5.58339,-0.605944,0.123849415128119,-0.0379940782887357,-0.991573382250357
17.6375,-6.64182,-0.615476,-0.680392408270092,0.299415219132281,0.668892141769054
16.6956,-4.17783,-0.582942,-0.401907126549828,0.787894005829854,-0.46657657164269
16.3484,-3.14629,-0.570871,-0.216497702918753,0.385509100444759,0.896945638322176
33.2953,-4.52429,-1.16269,0.616387343977381,-0.629224308439422,-0.473437864828576
36.1907,-2.61452,-1.26381,0.0350882472224972,0.73973781287397,0.671979749033622
15.6149,1.95522,-0.545281,0.903293635767076,0.233347972462139,-0.360012959947979
49.3639,12.8351,-1.72354,-0.072189963637297,-0.219074887014613,0.97303381391891
15.7712,2.29066,-0.550734,0.622275659005079,0.570236789828568,-0.536286311344793
53.359,-1.74977,-1.86334,-0.721879150912837,0.679245510410978,-0.132348132075567
33.3851,-3.07291,-1.16583,-0.301673702097407,-0.248955699919834,0.920333655225251
33.6934,-5.25521,-1.17658,-0.107074401390917,-0.190908765889501,0.975750437188385
16.7604,-4.12404,-0.585209,-0.211900108639768,0.891565652302819,0.400261204205832
16.3852,-3.08657,-0.572157,0.478359214145624,0.749729476996955,0.457250668193993
33.35,-4.39818,-1.1646,0.616387343977381,-0.629224308439422,-0.473437864828576
36.4,-2.48575,-1.27112,0.108168659658545,0.714215425919266,0.691517076034016
29.0438,0.190418,-1.01423,-0.70944741805627,0.704687314800935,-0.0100074658100398
15.5947,2.01503,-0.544576,0.955159079176026,-0.0909603617309728,0.281775346794882
15.7553,2.22511,-0.550181,0.760141218109276,-0.530392443573324,-0.375325437895787
53.2395,-1.95553,-1.85916,0.789634390991587,-0.613544448577383,-0.00638264703867609
34.5781,-3.31995,-1.20749,0.390209203851085,-0.242149478882311,-0.888313237043627
34.1315,-5.59895,-1.19187,-0.0682743327196991,-0.122601932946105,0.990104732606384
52.24,-13.7293,-1.82395,-0.00294162413046913,0.0119985823221025,0.99992368752307
53.0115,-10.4186,-1.85111,-0.0345489148301645,0.0196370254579338,-0.99921006786122
33.5527,-4.2907,-1.17168,-0.280932781776816,0.152498100647953,0.94753422176822
41.708,-2.18955,-1.45647,-0.00427435031361124,0.239526918906031,0.970880314482058
29.3424,0.307808,-1.02466,0.990012381459127,-0.136121487405561,-0.036693667357261
15.6238,2.08131,-0.545591,0.959017496823347,0.0236637577754879,0.282356985666416
15.849,1.66865,-0.553456,-0.0280322220134224,-0.754698857727278,0.655472218079555
54.337,-1.14014,-1.89749,-0.163287738548109,0.114098713697209,0.979958467473233
38.7976,-4.03336,-1.35484,-0.0300393622547838,-0.370602964866358,0.92830548805207
33.9123,-5.70006,-1.18421,-0.0660219230686349,0.107638670958094,0.991995474883174
17.5865,-4.47433,-0.614041,-0.407718820052477,0.365771547255297,-0.836646005783499
54.6079,-9.39966,-1.9069,-0.00296921350268921,-0.0352541111254166,0.999373969753031
38.0203,-4.25516,-1.32769,0.0408901678699244,-0.163115780120332,0.985759218291822
52.9509,-2.57095,-1.84909,0.461736650265333,-0.433324720111701,-0.77396960711766
29.7029,0.42845,-1.03725,-0.40720454023719,0.907766373344592,0.100720771616506
52.9606,-2.36264,-1.84942,-0.411844743056901,0.402103470130143,0.817738776704206
38.0615,-4.10825,-1.32913,0.0408901678699244,-0.163115780120332,0.985759218291822
17.6036,-9.94258,-0.735453,0.486612514419458,0.00124061106507393,-0.873617033770838
18.3821,-9.71428,-0.768508,-0.0582317141252491,-0.998109414578226,0.0196637738073236
18.3619,-8.8966,-0.768189,-0.585421662735055,-0.278296086109754,-0.761467507682709
17.4111,-6.69795,-0.72919,0.36849046940652,0.167152525144102,-0.914480621606884
17.445,-5.74772,-0.730859,0.0700032740782092,-0.029262338168348,-0.997117474113884
17.5125,-4.83372,-0.733841,-0.407718820052477,0.365771547255297,-0.836646005783499
16.0824,-3.49156,-0.674,0.484927490802096,-0.229392125047724,-0.843933991275664
33.7744,-5.40549,-1.41554,-0.0744908636864523,0.0438156832153523,0.996258649714831
33.351,-3.33548,-1.39782,-0.148587151521741,-0.433985548262621,0.888582242846349
53.1049,-2.16038,-2.22575,-0.527274270704074,0.298672950763003,0.795472382887054
15.6237,2.14445,-0.654821,0.853559065836482,0.390633913912003,-0.344734776937491
48.6511,12.2454,-2.0388,-0.0269657468447944,-0.274440803385494,0.961225828790626
45.1406,13.8298,-1.89137,0.147712876757091,-0.205238520040013,0.967500933297704
41.6517,15.0276,-1.74469,0.0716464851392764,-0.958954515212856,-0.27435928801494
35.1421,14.6603,-1.47136,-0.013507570477762,0.920285687554757,0.391013808991008
30.9801,14.4787,-1.29638,0.187479452334347,0.981320642707994,0.0431422200122228
27.7542,14.174,-1.16067,-0.563222127703721,-0.824387269173856,-0.0562713540708472
26.1511,14.5299,-1.09276,0.87695144180419,0.428265880168544,0.218047023829759
23.641,14.0149,-0.987088,0.561039498592126,0.825065600478248,0.0670927412390025
23.2324,13.9932,-0.969813,0.515546479680496,-0.856484775915843,-0.0254097602002543
24.4949,14.0617,-1.02316,0.42781008219039,0.842825593553174,0.326532620771633
26.7364,14.3693,-1.1176,0.472749316583372,-0.880910029568398,-0.0224856282046613
29.0466,14.3252,-1.21505,-0.28123780505155,0.958172898314241,-0.053009376018522
32.658,14.4359,-1.36701,-0.374729145119204,-0.925709784600332,0.0513756994447568
41.3068,13.9307,-1.73049,-0.0544592075529264,0.198148711172145,-0.978657898845927
44.6759,12.6683,-1.87205,0.0184780092834181,0.0776838833269487,0.9968067904284
15.9001,1.73777,-0.666409,0.644814589993322,-0.318482253529442,0.694826020467392
33.721,-2.70367,-1.41333,0.348042315434306,-0.922519755170489,-0.1668048200362
33.2869,-4.79145,-1.39512,0.983051665358281,0.181229620948462,0.0276631113070739
16.1346,-3.30397,-0.676201,-0.315602120683884,0.0952773202072746,-0.944096146414102
16.8466,-4.52337,-0.705956,0.532971302103395,-0.123051378716928,0.83713795119447
16.4109,-5.53458,-0.68751,0.796702595863796,0.598621523048245,-0.0831699818882288
17.2478,-6.77398,-0.722302,-0.279524502063443,0.240222038509945,0.929601756108663
16.9374,-7.48685,-0.708971,0.0291244611791254,0.219702163157091,0.975132157845859
17.8067,-8.78193,-0.74487,0.336706975136228,-0.665616267310497,-0.666020568440835
17.5331,-9.42311,-0.732897,0.178037835522233,-0.181951457825459,0.967055425566574
17.7069,-10.165,-0.739627,0.729426485065285,-0.269140103100009,0.628888390565941
17.6932,-10.6568,-0.738584,0.240279251868313,0.172119882830691,-0.955322263456658
18.8679,-11.7272,-0.787246,-0.527464121941941,-0.848636920455942,0.0399621984264327
17.3026,-9.45578,-0.723138,-0.346365950796663,-0.182106878954314,0.920254156614488
17.5329,-8.79993,-0.733324,-0.276309719001674,0.446056576696996,0.851285186979412
17.8408,-8.18645,-0.746642,0.580469902814249,-0.698486970759154,0.418533921691561
16.9319,-6.92489,-0.708978,0.350298950730139,0.0611883619836989,-0.934637164612619
16.7204,-5.90075,-0.700414,-0.237100202738001,0.189800657280315,0.952763981454777
16.5702,-4.9501,-0.694304,-0.373073673683454,0.37564096937595,0.848357174856574
16.4202,-3.973,-0.688128,-0.737277332278868,-0.318622464500441,0.595736401794805
16.2823,-3.00174,-0.682405,0.806388549113697,0.502580231253663,-0.311689940503893
33.0773,-4.09883,-1.38634,0.945473218791823,-0.312821814159585,-0.0906802356268153
37.0972,-2.38743,-1.55483,-0.489921127848679,0.767054859603273,0.414251289492841
29.7725,-0.156197,-1.24784,-0.588722804548011,-0.60873283947885,0.531836243166203
16.3024,1.84667,-0.683269,0.383735890830966,-0.905569772111757,0.180804186692745
42.1148,12.5812,-1.76464,-0.000844046306370405,-0.0801130012104102,0.996785430583179
38.8837,13.7223,-1.62883,0.360055401100244,0.242801454669414,-0.900781639327178
36.2141,14.811,-1.51636,-0.23242100096902,-0.952758731731814,-0.195528201079391
30.6077,14.5664,-1.28066,-0.343723162819639,-0.798163904104065,-0.494761325819451
27.721,14.4024,-1.15912,-0.498995432610652,-0.754113955174845,0.426984426934121
24.1157,14.0692,-1.00712,0.505001823684015,-0.862754521374664,-0.025055816159009
26.252,14.3466,-1.09717,0.924512319022011,0.327428898737023,-0.195108401275812
28.9458,14.5281,-1.21067,0.150982198779807,-0.93601459908183,0.31793245502354
31.625,14.5115,-1.32351,0.0196805981135758,0.896167844277274,0.44327854554593
36.5599,14.6547,-1.53095,0.331683340221289,0.911555527995324,0.243007574369226
39.0139,13.4621,-1.63436,0.43475848246195,0.453714052444568,-0.777900135326964
43.0165,12.5235,-1.80247,0.011445923802206,-0.0932747551767164,0.995574613414302
15.6504,1.83522,-0.655944,0.992970040166458,-0.0770187095320157,0.0898811310222895
29.7729,-0.0390499,-1.24785,-0.588722804548011,-0.60873283947885,0.531836243166203
38.4393,-2.32196,-1.61108,-0.106674992531479,-0.324617910288679,-0.939810437422473
33.0064,-3.95825,-1.38337,0.866871268119422,0.428544321050337,-0.254723319318295
16.2325,-2.92658,-0.680323,-0.455132158595405,-0.705680778446264,-0.54301874474438
16.2292,-3.85926,-0.680132,-0.164861390946599,-0.0917396701793028,0.982041014770027
16.4994,-5.05494,-0.691317,-0.279585735556997,0.37809986290003,0.882537427052265
16.6553,-6.00911,-0.697653,-0.237100202738001,0.189800657280315,0.952763981454777
16.9753,-7.08164,-0.71074,0.108170289966988,-0.0298938494070305,-0.993682819684474
18.2016,-8.50664,-0.761661,0.469641653610451,-0.537418067982492,-0.700441673089207
17.4822,-8.92808,-0.731099,-0.425185277985431,0.408100451548482,0.807880870444632
17.378,-9.65545,-0.726161,0.458038936027146,-0.144686768473238,0.877078144814869
17.8375,-8.48897,-0.746338,0.737388714789839,-0.164645757596086,-0.655095151719352
17.0173,-7.23933,-0.712442,0.729555093086937,-0.222981127251655,0.64655145428689
16.6481,-6.13845,-0.697313,-0.274160880955895,0.289250128010247,0.917153299508617
16.4994,-5.18147,-0.691296,-0.338150381100079,0.0713986841760891,0.938379745976966
16.5007,-4.26847,-0.691478,-0.0583274886691578,0.103596660411193,0.992907667417871
16.1352,-3.238,-0.67623,0.252042258732162,0.382755690581554,0.888804129794989
33.0706,-4.62757,-1.38606,0.898824353108706,0.430745296683575,0.0810757154991245
33.9056,-2.58424,-1.42107,-0.230315903679011,0.945174647814417,0.231515592652876
45.1048,-0.769133,-1.89045,-0.0179055059265489,0.0875184053437625,0.99600196866452
16.0871,1.6302,-0.674247,0.136920571723376,0.972044330612625,0.190742172481067
43.2793,6.98494,-1.8139,0.0418800266391387,-3.32251808164594e-05,0.999122646257602
42.4292,11.7112,-1.77795,-0.0219085748363003,0.0607095969824386,-0.997915005991428
39.7553,13.0985,-1.66555,0.0202375275056444,-0.174579224864683,0.984435135865287
37.5299,14.4375,-1.57178,0.0185735697333056,-0.711596974938698,0.702342343708149
33.4795,14.5199,-1.40152,-0.0540660419886628,0.990789801810433,-0.124146815231494
29.8986,14.4863,-1.25084,0.152815126549931,0.972670396947008,0.174813717998555
27.101,14.3219,-1.13302,0.0860006661647439,0.894323859413531,0.439077122955531
32.2377,14.5205,-1.34929,0.128961673439462,-0.806428091293428,-0.577098449449079
37.6181,14.1702,-1.57557,-0.571439230876839,-0.251353803854296,0.781203219849267
40.2023,12.9347,-1.68434,-0.0213568737607982,-0.360098768711907,0.932669695398824
43.1337,11.3997,-1.80753,0.0834602434357113,0.0795199721071927,-0.993333258177599
43.1082,8.88643,-1.80666,-0.0418915334709774,3.899799414573e-05,-0.999122163652978
16.1528,2.41167,-0.676995,0.45079704001015,-0.0430323110425926,0.891588609687462
44.7956,4.00583,-1.87749,0.0418758239709436,-1.65224037262934e-06,0.999122822962235
45.7288,-1.31986,-1.91661,0.041878766102308,-3.08658934433659e-06,0.999122699642152
33.0523,-2.91199,-1.3853,-0.705182828452691,0.559030269916991,0.436121927644092
33.1444,-4.90412,-1.38914,0.642799363553862,-0.239817091975556,-0.727527828066485
16.7698,-4.75523,-0.702704,0.602872658825961,-0.10906484646206,0.790347655469619
16.4073,-5.66148,-0.687327,0.824439848203801,0.0735677408110512,0.561147684843884
16.6671,-6.68086,-0.697937,-0.680270014770714,-0.0403701430343085,0.731848999832098
16.9074,-7.61544,-0.70765,-0.40381820484533,-0.259449918071002,0.877277947658805
17.1978,-8.9351,-0.719105,0.753589697593627,-0.313141192975493,-0.57796640122297
17.4845,-10.2006,-0.73019,0.598293130326913,0.661077173882423,-0.452793882881884
16.6763,-4.85499,-0.698767,-0.00525965834855949,0.0194188373121958,0.999797601893253
16.3658,-3.82377,-0.685861,0.0151337917212948,-0.238428031385076,0.971042245320961
16.6987,-2.94283,-0.699862,0.0491724631057138,0.673865271914781,0.737216158381878
32.8977,-3.81397,-1.37882,0.799890903831667,0.285936589095247,-0.527650271471488
40.5664,-2.29029,-1.70024,-0.120163458109792,0.793373028059525,0.596757892015478
28.8618,0.0757089,-1.20967,0.386242033115541,0.903495833450032,0.185775054281258
15.6183,1.89378,-0.654598,0.977129999565044,0.0519372178137491,0.206202544493961
41.3991,13.0009,-1.73454,-0.0131597661542465,-0.0883399542189328,0.996003450316997
38.6531,14.2521,-1.619,-0.309291285085122,0.304665579696396,-0.900842819541041
34.2578,14.5736,-1.43422,0.0294114499010699,-0.687973691103511,0.72513941208855
44.7022,6.85409,-1.87355,-0.000598232694975529,-0.0159306222283862,0.999872920621946
33.1381,-2.7882,-1.3889,0.607165007044656,-0.605234085486049,-0.514822645176306
33.2235,-5.04951,-1.39246,0.793713600747369,0.226002177308513,0.564749268118568
16.1692,-3.44385,-0.677643,0.785750677305944,-0.390781679237811,-0.479463817493382
16.6173,-5.34647,-0.69621,-0.240470847365367,-0.0127107136666504,0.970573134454826
16.8735,-6.35598,-0.706714,-0.0375796230575124,0.139670940518534,-0.989484613475886
16.4369,-4.11423,-0.688816,0.35158787152216,0.179141306635712,-0.918854918284365
32.9401,-4.47724,-1.38059,0.731774668538506,0.671727234943075,-0.115275133142802
34.4134,-2.48679,-1.44235,0.173890853105765,-0.951339173697047,-0.254392900442541
46.1827,-0.424019,-1.93563,0.041878766102308,-3.08658934433659e-06,0.999122699642152
15.6231,1.95678,-0.654799,0.961056539292247,0.265737712288156,-0.0758537840286564
43.2023,11.2362,-1.81043,0.0834602434357113,0.0795199721071927,-0.993333258177599
16.051,2.33194,-0.672729,0.743799847971364,-0.627446522336455,0.230375015497914
45.01,3.84654,-1.88648,0.0418758239709436,-1.65224037260159e-06,0.999122822962235
45.5949,1.1963,-1.91099,-0.0433404618729373,-0.0148870309135825,0.998949438497874
46.1723,-1.51451,-1.9352,0.00160076989998744,0.0305996897606465,0.999530438016912
32.9536,-3.03401,-1.38116,-0.76785901884413,0.522211803621952,0.371062473631648
33.1911,-5.17828,-1.3911,0.854567246055736,-0.00148126078249704,-0.519338644658001
16.3732,-3.62222,-0.686184,0.164223162193183,0.67294182337181,0.721235090214207
16.4287,-4.04355,-0.688479,0.35158787152216,0.179141306635713,-0.918854918284365
16.4176,-3.09352,-0.688072,-0.17688075656615,-0.909463848311576,-0.376282748170688
32.908,-4.34106,-1.37924,0.908272284782679,0.222436066673846,0.354349619639023
35.3568,-2.41515,-1.48189,0.0111453948121255,0.73031087866562,0.683024011786652
28.7489,0.188535,-1.20494,0.368018133932168,0.901919473361443,-0.226061754103836
15.5906,2.01504,-0.653434,0.971354974606386,0.189138622138282,-0.143861373978773
43.2425,8.20684,-1.81232,-0.041875251219913,3.55823866757775e-05,-0.999122846335305
42.6294,10.9083,-1.78644,-0.109531391933994,-0.00388861358467544,0.993975730521319
42.8217,8.47662,-1.79467,-0.0418915334709774,3.899799414573e-05,-0.999122163652978
16.0848,2.27225,-0.674144,0.45079704001015,-0.0430323110425924,0.891588609687462
43.8554,3.57411,-1.83809,0.041875041354814,4.69533250335719e-07,0.999122855764651
43.9897,0.980992,-1.84371,0.0143932363095666,-0.158221623054877,0.987298715053563
44.8315,-1.64714,-1.879,0.0418802716694293,-5.88155166972304e-06,0.999122636521815
32.8917,-3.15888,-1.37857,0.850472292763463,-0.499513130670762,-0.164874229427017
33.1494,-5.43932,-1.38934,0.97963217630978,0.183280462912676,-0.0820309152276132
16.2005,-3.65095,-0.678944,-0.0806220126806872,-0.132305380692013,-0.987924783225553
16.5925,-4.36193,-0.695315,-0.116193722705887,-0.445887476256222,0.8875152828665
16.0498,-3.15522,-0.672655,-0.447295940815329,0.309633704379104,0.839078846380126
32.8752,-4.2052,-1.37787,0.993281820408042,-0.108491165606973,-0.0402603059119781
40.8867,-2.14701,-1.71366,0.12267489210378,-0.808279146078398,-0.575878192730114
29.4094,0.308593,-1.23262,0.327940766779442,-0.941096549946959,-0.0824144232646279
43.2972,3.18584,-1.81469,-0.0318145980648412,0.00856638094650807,0.999457076850953
15.6073,2.07966,-0.654133,0.871546378400127,-0.150971134255081,-0.466491829424007
42.61,9.48519,-1.78574,0.122110562382201,-0.0216086586625475,-0.992281248651565
42.8575,7.09001,-1.79622,-0.0418752512199128,3.55823866756699e-05,-0.999122846335306
15.9688,1.68173,-0.669291,-0.632939689892777,-0.694392537065583,-0.342354134524558
43.6052,2.00312,-1.8276,-0.00162550457361684,-0.0690521269304843,0.99761172883104
32.7418,-3.40472,-1.37228,-0.758506665995292,-0.304267133450863,0.576271766740573
16.6844,-2.80511,-0.699266,0.311185875681516,0.639258607530214,0.703215318003569
16.1982,-3.71746,-0.678843,-0.670005860871383,-0.171502259984126,0.722273577820991
16.469,-4.19119,-0.690155,-0.295169607739731,-0.11893178596061,0.948013783103913
16.5871,-2.85592,-0.695188,-0.171778142107104,0.314563743403375,0.933564095941081
32.838,-3.67616,-1.37632,0.93480243654734,0.116397320306293,-0.335553376455477
42.8893,-2.08299,-1.79759,0.0487873826283369,0.329638028355655,0.942845990370682
29.6076,0.42719,-1.24093,-0.436323365932983,0.885631245877385,0.158994391934382
43.7939,4.26389,-1.83551,-0.00520018044116435,0.0312819351519495,0.99949707286041
43.3927,6.82817,-1.81866,0.0418800266391387,-3.32251808163042e-05,0.999122646257602
44.9665,1.71116,-1.88466,0.00487595532531405,-0.0410139947442493,0.999146674565243
42.7849,-1.9092,-1.79322,0.394768920331385,0.0735489438782596,-0.915831890902902
32.8522,-3.54692,-1.37691,0.757162620396594,0.102455705815593,-0.64514153068919
17.4953,-10.7093,-0.852067,0.917312672251106,0.392616581190675,-0.0662546715461022
17.4285,-10.336,-0.849196,-0.697972371317239,0.415126665931756,0.58352756585287
17.3804,-9.82028,-0.847365,-0.80063544384844,0.208059009182147,-0.561866830086769
17.1073,-9.04396,-0.834618,-0.749401843338803,0.233558482716276,0.619554123827511
17.7719,-8.61391,-0.867636,0.721155603805201,-0.511854204164885,-0.466840303293416
17.0181,-7.3833,-0.831345,-0.505583662412363,0.781175979835227,-0.366263905988801
16.8,-6.46508,-0.821047,-0.387645383754934,0.389077504469495,0.835673232770609
16.278,-5.36506,-0.795809,0.999720040578979,0.02045647938685,-0.0118900343086115
16.9296,-4.67439,-0.827833,-0.684976760858292,0.121784559662274,-0.718314247465514
16.2845,-3.53661,-0.796391,0.445127952045991,0.205545233816087,0.871557378009522
33.197,-5.31478,-1.62358,0.947116009110919,0.295089026054472,0.126070345395054
32.7942,-3.28083,-1.6039,0.918913516150439,-0.376276340166316,-0.118381019032106
42.2924,-1.72106,-2.06844,0.394768920331385,0.0735489438782593,-0.915831890902902
44.0416,0.809043,-2.15399,0.0143932363095666,-0.158221623054877,0.987298715053563
15.594,2.14107,-0.76267,0.74038097865959,0.670762530352542,0.0437451061734041
42.4769,10.6949,-2.07719,-0.109531391933994,-0.00388861358467544,0.993975730521319
40.9149,12.5393,-2.00048,0.00965108577947217,-0.19821549306422,0.980110950276848
37.859,13.6639,-1.85055,-0.593445861407955,-0.171666100112834,0.78635409304576
27.8785,14.2427,-1.36051,-0.317909623557768,-0.874016554947129,-0.367462287762584
25.9788,14.4397,-1.2668,0.447398255062669,0.509945225034348,-0.734704477209407
23.6546,14.0283,-1.15256,0.627389037948431,0.772292945024836,0.099732653263655
22.6135,14.0608,-1.10107,0.524577813826058,-0.850707721888224,-0.0333839656305673
23.3529,14.0712,-1.13761,-0.515362422908899,0.856470860901825,0.0293127528484743
24.6383,14.1494,-1.20098,-0.049120460220442,0.94395510717933,0.326398431396033
26.8265,14.4232,-1.30858,0.47453851495611,-0.879853835988714,-0.0258925688025308
29.5072,14.5577,-1.44038,0.0547270886130856,0.980992637311804,0.186167643031666
32.716,14.4666,-1.59805,-0.135434800429537,-0.983280164245259,0.121727291247394
35.5463,13.9655,-1.73711,-0.691859820054921,-0.555898446235365,0.460767736356051
40.539,9.19475,-1.98252,-0.160902776071613,-0.0193404157979197,-0.986780748175202
40.8598,6.92704,-1.99833,-0.312349257689092,0.0274380981604445,-0.949571004185791
15.9942,1.74862,-0.782248,-0.710118763721919,-0.699273574819186,-0.0821450483574561
42.7353,-0.560717,-2.09011,0.144807912014383,-0.10293893118299,-0.984090567511414
33.5362,-2.6897,-1.6402,0.290461967598397,-0.942842736209387,-0.163338360944586
33.0788,-4.76302,-1.61781,0.937380725115843,-0.118550982159902,-0.32751036748509
16.0317,-3.28397,-0.784039,-0.617657842701182,0.0715585769716632,-0.783184626644007
16.4677,-4.42309,-0.805267,-0.191192779379367,-0.341561764444668,0.920206977903688
16.2756,-5.49082,-0.795661,0.907391813379314,-0.303919497669083,0.290298184542676
16.4873,-6.47757,-0.805716,0.834584941878745,-0.52440867424436,-0.168711342732271
16.7379,-7.40131,-0.817583,0.645086082041237,0.0398884302749895,-0.763068057178967
17.5994,-8.6829,-0.859109,0.444947330366418,-0.662605517534425,-0.60247473086656
17.2306,-9.26398,-0.8405,-0.606751260009341,-0.0386710861108772,0.793950537235212
17.3331,-9.95416,-0.844894,0.79795441753783,-0.335562361818243,0.500666205033678
17.3772,-10.4706,-0.846513,0.971246151534706,-0.204718483975172,-0.121537053806359
17.6215,-10.9568,-0.858005,0.527824134111846,0.848738147006874,-0.0323301912214886
17.1326,-9.36643,-0.835582,0.298681120854354,-0.875059047449503,0.380869073989941
17.438,-8.75549,-0.851118,0.500884475854619,-0.705058651992587,-0.502003026981153
16.8824,-7.74945,-0.824482,0.936001893698545,-0.229357566350226,-0.267012287639798
16.6378,-6.80697,-0.812958,0.93001528609487,0.364213394828804,-0.0491952300244134
16.4209,-5.79703,-0.802694,0.877848639815926,-0.124203719955264,-0.462552917537662
16.3856,-4.8966,-0.801174,-0.397395849845589,-0.5270881356169,0.751168846410314
16.0026,-3.87324,-0.782573,0.411854722643036,-0.818173172494434,0.401208608141727
16.1912,-2.98592,-0.791858,0.0755162537794596,-0.00821284477652891,0.997110748410523
32.9678,-4.08657,-1.61239,0.994975892370867,0.0984370115243121,0.0182518043754707
36.936,-2.37781,-1.80647,-0.489921127848679,0.767054859603273,0.414251289492841
29.6633,-0.155673,-1.45078,0.84403320719851,0.236016857390765,-0.481564105985469
16.4955,1.86916,-0.806765,-0.261937380167911,-0.0245821309402366,0.964771749021088
38.5267,11.5132,-1.88377,-0.0455505367700248,-0.0639372527303153,0.996913825921409
35.6825,12.5969,-1.74425,-0.065495814959832,-0.0665916672264012,0.995628368458209
33.9156,13.8758,-1.65719,0.00578761663804526,-0.0383634996099264,0.999247089258373
27.6122,14.3512,-1.34733,0.449954782032838,0.869904542360419,-0.202006884304696
24.2262,14.1392,-1.18066,-0.00208332578072267,0.916545163469307,0.399925771956137
26.2105,14.3293,-1.27832,-0.237957256495408,-0.773457784560703,-0.587485659045076
28.1334,14.1256,-1.37314,-0.306416141738175,-0.907411270260376,-0.287600303697234
32.3066,14.8295,-1.57775,-0.218576702794979,-0.641640373892452,-0.735201914841379
34.1391,13.6892,-1.66823,0.067996500001898,0.0259556947519917,-0.997347872057405
35.7342,12.3346,-1.74685,-0.0491155491039995,-0.0766106170040975,0.995850629461298
37.9233,11.0444,-1.85431,-0.0286432642207724,-0.0599422429545007,0.99779080519133
38.3642,9.0196,-1.87614,-0.0488707497191487,9.63729669384294e-05,-0.99880510638169
38.4087,6.82296,-1.87845,0.0488595735010789,-3.06039232923432e-05,0.998805657343155
15.6207,1.83232,-0.763976,0.946584884017522,-0.319115183621751,-0.0462877622227575
29.2644,-0.0383951,-1.43127,-0.676868672250496,-0.629351819391433,0.381791943281343
37.2564,-2.25122,-1.82215,-0.489921127848679,0.767054859603273,0.414251289492842
16.2274,-2.9266,-0.793629,0.795549374650974,0.065824455551391,-0.602302526595902
16.0299,-3.81311,-0.78391,0.942154174097321,-0.255199000892065,-0.217299291703143
16.2914,-4.99287,-0.796543,-0.711974307698629,0.106522719757351,-0.69407888265856
16.427,-5.92877,-0.802952,-0.799542532503472,0.308875636365377,0.515099582583617
16.6935,-6.96651,-0.815619,0.940622814266249,0.0505435872283509,-0.33566958020043
17.1105,-7.99957,-0.835533,-0.575239172668478,-0.815658286276874,0.0616559344715316
17.2208,-8.79787,-0.840404,0.611759264669763,-0.37375716971123,0.697177294653349
17.3395,-9.63772,-0.845524,0.708853875846858,0.441468554265622,-0.550119712691256
17.8767,-8.51074,-0.872854,0.899739152289948,-0.434301663568537,-0.0430293255602125
16.61,-7.06854,-0.811474,-0.475032089953031,0.192177278815686,0.858727201747944
16.2798,-6.00474,-0.795718,0.910581865709243,-0.330195149285698,0.248619848824805
16.3037,-5.12173,-0.797122,0.900213779020674,0.119149594882518,-0.418829948906055
16.0485,-4.15287,-0.784788,0.161980604145853,-0.939050265555524,0.303227443745856
15.9955,-3.21101,-0.782274,0.878899733625545,0.306243387255443,-0.365718807275835
33.0972,-4.63278,-1.61871,0.807402266884389,0.301477713369454,-0.507161480961908
33.87,-2.58234,-1.65652,-0.369950281556143,0.928954907144601,0.0134003607599637
39.6141,-0.67572,-1.93745,0.171044876016192,-0.0566818518308131,0.983631444221684
16.2061,1.64279,-0.79261,0.727649750771922,-0.051653118781329,0.68400131251462
38.1046,6.15177,-1.86359,-0.126220161296282,-0.0503581370453659,-0.990723235275958
37.5016,8.19599,-1.83401,-0.0488597376822696,7.4353182555241e-05,-0.998805647013083
34.1522,13.1427,-1.66909,-0.180670229847593,-0.00776109030748394,-0.983513107957417
32.736,14.2025,-1.59917,0.043063203642927,0.048362423844754,-0.997901115568005
30.5851,14.8243,-1.49318,-0.410135281724206,-0.768559595217826,-0.491024642236636
27.2796,14.4217,-1.3309,0.214488769856965,0.772235188242286,0.598036271178971
32.1249,14.4749,-1.56903,0.141050969611863,-0.824717988681451,-0.547672222334469
34.3833,12.9561,-1.68048,-0.110554751343163,0.163457154028455,-0.980336373778087
37.1488,11.9563,-1.81622,0.0480374029183162,-0.122509995543406,0.991304044636568
37.1488,9.82126,-1.81659,-0.0488359191890372,0.00011907638755293,-0.998806807554782
37.7422,7.7828,-1.8458,-0.0488540572145782,5.92219662486817e-05,-0.998805925886723
16.5179,2.46697,-0.807851,0.356405602827925,-0.191992358205083,0.914392684060691
38.6425,3.45669,-1.88994,0.0488574054861606,-3.99329809536164e-06,0.998805763856624
38.4421,1.16038,-1.88013,0.0488488361679286,3.68175077758437e-07,0.99880618300294
39.3914,-1.1373,-1.92656,0.171044876016192,-0.0566818518308131,0.983631444221684
32.9175,-2.90104,-1.60994,0.933831248531205,-0.357319720643672,0.0167873912737924
33.2202,-4.91693,-1.62472,0.961583234505222,-0.0040574711373413,-0.274483551504358
16.0065,-3.3445,-0.782801,-0.715005254814762,-0.0665685658271111,-0.695942606563931
16.4284,-4.65996,-0.803307,-0.615238431752558,0.34371894858708,0.709463851423626
16.3666,-5.64939,-0.800076,0.826891746082252,0.128502792936563,-0.547482485992518
16.5459,-6.63461,-0.808526,0.786306572406609,0.104480730763947,-0.608938216151033
16.7199,-7.53368,-0.816628,0.84143141772111,-0.272152643556675,0.466825564720867
17.1811,-8.92973,-0.838346,0.914622071844425,-0.403878265529334,-0.0186765180916585
17.2631,-10.0753,-0.841315,0.50594680901814,-0.338565863735019,-0.793341655503933
16.0204,-3.7443,-0.783454,0.90596071739254,0.395895919580116,-0.150005331243288
16.1528,-2.84754,-0.789981,-0.196066750867292,0.637772703547992,0.744851534074697
32.8253,-3.80679,-1.60542,0.860847137521625,0.479564444967486,0.170176816705012
36.3058,-2.05039,-1.77565,-0.263123717907197,-0.697023626877789,-0.667026215863235
28.94,0.075938,-1.4154,0.349373140256858,-0.936969205075876,0.00520745682100789
38.1376,2.35469,-1.86524,0.116182588710523,-0.0797368880980664,-0.99002203751076
15.601,1.89229,-0.763012,0.992489880693264,0.119888319376203,0.0243028310823971
37.5959,6.83133,-1.83869,-0.209538110814705,-0.0611593711279284,-0.975885911077438
37.3335,8.93247,-1.82572,-0.0488563890846421,9.92423903100042e-05,-0.998805808651791
37.1718,11.6773,-1.8174,0.0367009887617527,-0.105792765816482,0.993710686329179
34.0163,12.5468,-1.66263,0.0396831856284654,0.108166821679117,-0.993340416708298
32.6277,13.8851,-1.59402,0.955715885915301,0.0846771615938437,0.281845567134806
37.2546,10.0063,-1.82174,-0.0488359191890372,0.00011907638755293,-0.998806807554782
38.2063,3.5693,-1.8686,0.0488574054861606,-3.99329809536164e-06,0.998805763856624
38.3874,1.30997,-1.87746,-0.306733571379969,0.138745929834687,-0.941628420951066
33.0033,-2.77773,-1.61413,0.595145846928098,-0.80188280889639,0.0527767153266755
15.9932,-3.40748,-0.782149,0.906287217976915,0.374668368295953,-0.195619764671448
16.3032,-5.24718,-0.797069,0.526924893146509,-0.247161944723646,-0.813179641938339
16.366,-6.16694,-0.799883,0.770087589808085,0.599366752278059,0.218459607907793
16.0686,-4.02336,-0.785782,0.956184408795131,0.0814166044406084,-0.281216487600687
16.106,-3.1015,-0.787685,-0.679004742375863,0.488890451574849,0.547666583050333
32.9915,-4.48566,-1.61354,0.75503644322432,0.639931505941578,-0.142855301289497
34.2781,-2.4778,-1.67648,0.279391160297504,-0.947144200563637,-0.157665604639321
37.904,2.49006,-1.85381,-0.0488550808837294,-2.14162022897646e-06,-0.998805877569439
15.5934,1.95368,-0.762642,0.9929174038487,-0.0966973664149633,0.0690264330728979
37.7651,7.01573,-1.84696,0.005689685969925,-0.0947500649866858,-0.995484832962603
37.3562,9.71893,-1.82675,0.0488673649316239,-0.000108990468921041,0.998805270693801
37.6135,7.60204,-1.83952,-0.0488749508793726,4.78613212649692e-05,-0.998804904316069
16.4781,2.39475,-0.805904,0.356405602827925,-0.191992358205083,0.914392684060691
37.8726,3.23761,-1.85228,-0.221988180643659,0.0214362737482496,0.974813691852093
38.4339,1.00873,-1.87973,-0.211803433395531,-0.188524249091837,0.958956679473178
39.4116,-1.29316,-1.92755,-0.034499937560675,0.123263704953295,0.991774073743358
32.881,-3.0283,-1.60815,0.938366634169311,-0.247111326585169,0.241669303286695
33.1436,-5.17253,-1.62097,0.762713356786249,0.644449330282103,0.0543451569029012
15.9294,-3.52519,-0.779019,-0.572175285385235,0.155065060783587,0.80533860563027
16.0963,-3.96305,-0.787149,0.849505888153051,0.448780627044871,-0.277372844349459
16.1058,-3.03577,-0.787678,-0.419658300402699,0.0122581526512152,0.907599387723845
32.8728,-4.33781,-1.60774,0.882800937879636,-0.422334920540535,-0.205659230210693
35.1962,-2.40495,-1.72138,0.109423831618883,0.631344187831961,0.767744059934457
29.1016,0.190908,-1.42331,0.645705619303643,-0.678906948436925,-0.349499082350385
38.0059,2.64703,-1.8588,-0.0488550808837294,-2.1416202289383e-06,-0.998805877569439
15.598,2.01664,-0.762865,0.973607472514401,-0.119331849761952,-0.194546650180649
37.6882,7.15502,-1.84319,-0.0488702158726963,4.57760739399991e-05,-0.998805136102687
37.5754,9.61821,-1.83748,0.0488673649316239,-0.000108990468921041,0.998805270693801
37.8511,7.49513,-1.85115,-0.0488702158726963,4.57760739399045e-05,-0.998805136102687
15.6967,2.21814,-0.76769,0.852482652240355,-0.501599383872916,0.147212043418875
38.283,3.12096,-1.87235,0.0488574054861605,-3.99329809542376e-06,0.998805763856624
38.8242,0.866075,-1.89882,0.0488488361679286,3.68175077767116e-07,0.99880618300294
39.7927,-1.46247,-1.94619,-0.00449839841144843,0.1428568826696,0.989733133468642
32.8689,-3.15769,-1.60756,0.959706503766052,-0.276071778381119,0.0524194602283093
16.5053,-2.70914,-0.807228,-0.22805761165388,0.589291047109109,0.775065021507085
15.952,-3.5961,-0.780117,-0.627740259335211,0.185558302817247,0.755982991254
16.2372,-4.26996,-0.794008,-0.250307534308289,0.785152630420906,0.566464019344246
16.0448,-3.15525,-0.784685,-0.368300880568146,0.653900908283065,0.660884304185922
32.9515,-4.2163,-1.61159,0.893053874585595,-0.319455991904215,0.316863766190062
37.3602,-1.96245,-1.82722,-0.132807115142034,0.462320432169237,0.876710949039933
29.2254,0.30676,-1.42936,0.313807052839973,-0.949486750600282,0.000209815178862205
38.1072,2.80485,-1.86376,-0.0488550808837294,-2.14162022896258e-06,-0.998805877569439
15.6147,2.08132,-0.763681,0.996325008889016,0.0716330759368784,0.0469593344727563
37.7371,8.40321,-1.84551,0.0488623282655378,-7.4838574693254e-05,0.998805520246889
37.9447,6.2793,-1.85577,-0.126220161296282,-0.0503581370453657,-0.990723235275958
16.2616,1.7131,-0.795322,0.851588586522958,-0.390697884690194,0.349502563942582
38.7183,1.77918,-1.89364,0.00193539580174733,-0.04298883291908,0.999073678207641
39.8108,-0.835827,-1.94707,0.171044876016192,-0.0566818518308131,0.983631444221684
32.7314,-3.40473,-1.60083,0.853694337657776,-0.319839616234843,-0.410984911812829
16.4576,-2.76788,-0.804894,-0.325083987206138,0.639845568646941,0.696360574375828
15.9134,-3.65329,-0.778226,0.743855128356809,0.590964928863744,-0.312153809636123
16.1373,-4.10813,-0.789136,0.100826304876207,-0.671831605590939,0.733809477980567
16.3851,-2.82205,-0.801348,-0.227413050745133,0.730498668918273,0.643937108000015
32.7532,-3.66784,-1.6019,0.83990494430735,0.260115072729847,0.476340039747672
37.9658,-1.84445,-1.85684,-0.0725264434047629,0.507718994120619,0.858464523446486
29.5483,0.426469,-1.44515,-0.565710595777759,0.823562315533306,-0.0414322852156669
16.2497,1.58262,-0.794742,-0.461802236743715,-0.0243874222471215,-0.886647589391999
38.4069,1.462,-1.87841,-0.30673357137997,0.138745929834687,-0.941628420951065
38.9823,-1.74007,-1.90655,-0.0618344974652489,0.226334830322893,0.972084893157963
32.755,-3.53755,-1.60198,0.969723621014604,-0.0648946399018838,0.235424689780681
17.3789,-10.3111,-0.968032,0.969940814225799,-0.21731281376295,-0.109498666080563
17.2326,-9.74102,-0.960458,0.526347649597237,-0.73610697182151,-0.425563952654863
17.0567,-9.0211,-0.951299,-0.666495827727885,0.738308646320766,0.103361764639159
17.6643,-8.5653,-0.985848,0.78335642808797,-0.588909139526876,-0.198843486076289
16.7371,-7.26437,-0.934673,0.919243075894463,0.0356511154518284,0.392072908254481
16.4794,-6.34427,-0.92068,0.949582631451042,0.286645913713941,-0.126991913906415
16.2365,-5.35346,-0.90741,0.938429231526948,0.301829800322035,0.168075426678924
16.1419,-4.4586,-0.902304,0.74298527494784,0.669307631378577,-0.000419272085769214
15.986,-3.47309,-0.893702,0.930077135325264,0.103801235054262,0.352394418154376
17.027,-2.72701,-0.951945,0.0114370051527955,0.998616155698782,-0.0513319441529286
32.8194,-3.28457,-1.83489,0.798562345111386,-0.601834141185288,0.00968749059202011
38.4138,-1.56379,-2.14767,0.0868696673405769,0.376939845287579,0.922155092124266
37.9278,0.696986,-2.12049,-0.211803433395532,-0.188524249091837,0.958956679473178
37.2737,2.8921,-2.08393,-0.280677166139391,-0.0536400707172069,0.958302181580223
15.5883,2.14108,-0.871519,0.808509550724477,-0.575439200280683,-0.123215393387486
36.3236,7.04683,-2.03073,-0.0270397263342779,0.0665018369664762,0.997419850855121
35.1437,8.85191,-1.9646,0.242156052595969,-0.0187916091034746,0.970055318844467
35.1279,10.7699,-1.96339,-0.173089716568675,0.0673863960053511,-0.982598098742098
33.9732,12.2663,-1.89834,0.0266902970140594,-0.126000911301735,0.991671013187556
31.7332,13.2483,-1.77241,0.177834321608743,0.122300186975789,0.976431061736385
30.4386,14.2367,-1.69917,0.872533765460927,-0.469946887359453,0.133546812735225
27.9679,14.2945,-1.5603,-0.289986053464578,-0.92505952997119,-0.245301762744421
26.2088,14.5739,-1.46101,0.0342623674248791,0.820472156419781,0.570658856689631
23.6133,14.0101,-1.3153,0.85468166013681,0.507702682362235,0.108430835780133
22.573,14.0419,-1.25649,0.524577813826054,-0.850707721888226,-0.0333839656305676
23.5469,14.1945,-1.31132,0.85468166013681,0.507702682362236,0.108430835780133
24.7803,14.2373,-1.38087,0.803801988357236,-0.25934305434599,0.535391019419869
26.9042,14.4712,-1.50028,-0.00107922211973556,0.97634883524536,0.216198490269113
28.892,14.2602,-1.61227,-0.0707610460492459,-0.581815866975101,0.810236490969166
30.5247,13.5032,-1.70448,-0.046085168486888,-0.126697679560172,0.990870251465652
32.0385,12.5924,-1.78983,-0.00667103263405386,-0.10548051551088,0.994398993448381
34.2777,9.72672,-1.91602,0.160599163679515,-0.00965452869605947,-0.986972491359864
34.3328,7.79005,-1.91936,0.0135091225227267,-0.0467730099204284,0.998814191504931
16.3231,1.78523,-0.912606,0.553610206590165,-0.822567897094601,0.12999151444829
33.4494,-2.68372,-1.87011,-0.225057472999082,0.0503989286928129,0.973041151151319
32.9432,-4.74525,-1.8418,-0.481816010330069,-0.0547291147956798,0.874561636583321
15.9036,-3.25896,-0.889109,0.976276560320978,-0.100724502548465,0.19167329588183
16.2696,-5.49095,-0.909227,0.928697388111775,-0.364353138381941,0.0690503574617668
16.4348,-6.45952,-0.918127,0.911298373252834,-0.291998866005242,-0.290296292016261
16.8457,-7.45206,-0.940656,0.998642845812556,-0.0110756581470829,-0.0508900413048435
17.4698,-8.62256,-0.974875,0.242773897666487,-0.939922093742029,0.240015191826312
17.3481,-9.96717,-0.966711,0.890530883872444,-0.17463381041733,0.420068776664593
17.3705,-10.4713,-0.967358,0.985880843881835,0.00989490520774691,0.16715577321101
17.6146,-10.9575,-0.980491,0.526986340510665,0.849028368216844,-0.0378975840683877
17.2356,-9.4268,-0.960965,0.927772203241257,0.363803276166154,0.0829814144470739
17.4203,-8.75031,-0.97199,0.835015232480854,-0.525976330986177,0.16155018033808
16.8307,-7.72894,-0.939638,-0.741042139639205,-0.629101402576865,-0.234708271168211
16.5739,-6.78357,-0.925773,-0.504344256075002,-0.8186984363704,0.274535501618306
16.3561,-5.77641,-0.913979,0.821950058589956,-0.109962207386262,-0.558843819086073
16.2481,-4.85739,-0.908177,0.929344459702868,-0.327264790729006,-0.170928733595862
15.9847,-3.87036,-0.893588,0.892940776906542,0.448528764197055,0.0384540846387334
15.9523,-2.94295,-0.891845,0.958797356790773,-0.267493911866992,0.0956798606035781
32.5968,-4.04207,-1.82244,-0.319029621186335,-0.186498060303608,0.929213955076384
33.338,-2.14697,-1.86389,0.0583465572048025,0.141627443357295,0.988199041969998
33.5455,1.80687,-1.87549,-0.055821863916971,-7.48498991454127e-07,-0.998440744114679
15.6716,1.77644,-0.876178,0.403573888579151,0.794956346388883,0.452959737496768
32.4176,9.69128,-1.81196,-0.165481116829714,-0.0295184716601204,-0.985771099091286
32.3407,11.4217,-1.8072,-0.183724415002865,0.0280506786128251,0.982577477230786
30.555,12.5059,-1.70672,0.321683893650746,0.195477498302485,-0.926449146053413
28.3449,13.5,-1.58212,-0.0450027536645334,-0.260128198815446,0.964524790943002
27.5243,14.3116,-1.53533,0.65367342977305,0.724201497462949,0.219643434413962
24.3893,14.2407,-1.35881,0.0422097971800343,-0.980312002581166,-0.192890410900396
27.7103,13.919,-1.54614,0.851012617335977,-0.261029686200908,-0.455676451066791
28.576,13.1225,-1.59536,-0.100363970308116,-0.0878073794719679,0.991068583688464
30.3521,12.1756,-1.69551,-0.0571293924820433,-0.10167137201225,0.993176300879043
32.6922,7.68899,-1.82761,0.128804414761988,0.022325595116478,0.991418675706947
15.5902,1.82942,-0.871625,0.719448486179754,0.576104217801215,-0.387940467037547
33.4385,1.93318,-1.86951,-0.173521332783814,-0.0566882448121789,-0.983197228418105
29.104,-0.0381987,-1.62717,0.424556128384307,0.899676175848324,0.101660574768506
33.7321,-2.03901,-1.88592,-0.17578786462803,0.844192259949972,0.506397131597402
32.4514,-3.89437,-1.81431,-0.134763749938642,-0.0588055575322334,0.989131254235654
16.0619,-2.89783,-0.897976,0.6413267618255,-0.766424197630221,-0.0359712920714512
15.9876,-3.80449,-0.893759,0.813019180175671,-0.580914773432494,0.039215286233239
16.2973,-4.99663,-0.9109,0.990302173527278,-0.0341437532605804,0.134669258631769
16.3153,-5.8908,-0.91166,0.963307520789974,-0.252778327088787,0.0902315784172465
16.5837,-6.9235,-0.926252,0.809372782505369,-0.321760555521087,0.491310333547217
17.1041,-7.99991,-0.9548,-0.422133658879513,-0.906139404316608,0.0267311426193808
17.2588,-8.82101,-0.962848,0.626508063215249,-0.778406247917405,-0.0396403825590095
17.3656,-9.65645,-0.968048,-0.190400923483414,0.981435399021153,-0.023066119848258
17.3519,-8.26435,-0.968529,0.778190047813375,-0.506075004310945,-0.371898291870094
16.7071,-7.11277,-0.933073,0.91770032004975,0.394865001269652,0.0436778359457493
16.3675,-6.03945,-0.914525,0.939783559283952,0.295222907916274,0.172192614072285
16.2144,-5.09566,-0.90624,0.617101701817488,-0.389509381215044,0.683716265390428
16.0547,-4.15605,-0.897474,-0.6929020304811,-0.721012554767962,0.00526042033926165
15.9652,-3.20613,-0.892556,-0.70113252143273,0.48872858913251,0.519189323420589
32.5663,-4.56015,-1.82073,-0.155156417889006,-0.0981915691092895,0.982997915432026
32.7508,-2.49793,-1.83106,0.474839932736012,-0.607887544160393,-0.636395923882221
33.5893,1.41155,-1.87794,-0.0558027869019069,-2.42609165974472e-06,-0.998441810506799
33.4355,3.39055,-1.86934,0.0558204534050695,1.22724979034761e-06,0.998440822973573
32.7601,7.16243,-1.83146,-0.137389879913592,0.0170635708993953,-0.99037005984909
32.6615,9.02156,-1.82573,-0.127145181102181,0.0107409804444155,-0.991825959663078
32.3477,10.6656,-1.80782,0.0426957837751465,-0.0399134617506283,-0.998290531668466
31.5785,12.1571,-1.76424,0.141025571562573,-0.0921367655881359,0.985709188651707
30.1948,13.1054,-1.68621,0.0539277162542644,0.0820090202851521,-0.995171503818045
28.104,13.6275,-1.56849,-0.00917433855469757,-0.350806019279081,0.936403208211959
27.4347,14.5099,-1.53011,-0.409335375434644,-0.841686424134258,-0.352148425874468
29.19,13.1579,-1.6298,-0.0672102818544598,0.143954047507129,-0.987299351878324
32.2579,12.1601,-1.8023,0.0481355810385948,0.050562573292972,-0.997560219746191
32.5519,10.4809,-1.8193,0.0426957837751465,-0.0399134617506283,-0.998290531668466
32.8785,8.69562,-1.83791,-0.127283494366501,0.0301949970554754,-0.99140666439896
32.7323,6.75224,-1.82993,0.0558358061711127,-5.30081532857834e-05,0.998439963112133
33.4607,2.99426,-1.87074,0.0558204534050695,1.22724979059741e-06,0.998440822973573
33.7906,1.02034,-1.88919,0.0558248413043243,1.32746788930604e-06,0.998440577646755
32.4831,-2.86381,-1.81609,-0.692182248839058,0.270623805212381,0.669063891152763
