12.146,1.48666,-1.75033,-0.0288897168721539,-0.0429130548071117,0.998661030573522
12.1772,0.90442,-1.75479,-0.0280928453118341,-0.0163615296201057,0.999471406489838
12.1441,0.321613,-1.74999,-0.0983225298163119,-0.000176855025105772,0.995154585405112
12.1588,-0.209274,-1.75212,0.00731414462303349,0.0294373862332395,0.999539865928412
12.0274,-0.733342,-1.7332,-0.121145340100084,0.0183467446359064,0.992465215276233
12.272,-1.93281,-1.76853,0.342871005058572,0.303860785788472,0.888880248824405
12.3861,-2.56076,-1.785,-0.395229967446935,-0.207820807329543,-0.894764653343432
12.2516,-3.25231,-1.7656,-0.586867301509154,-0.729399122471696,0.351516273530661
12.563,-2.85858,-1.81049,0.0730397088695788,-0.0155282242070262,0.99720814035046
12.2442,-2.17841,-1.76453,-0.0181044381219165,0.0738626275546315,0.997104077602241
12.2034,-1.62505,-1.75862,-0.0289184647007067,-0.227013735277377,0.973462113487098
12.1218,-0.981023,-1.74681,0.0221196234432577,-0.369379506245638,0.929015340360135
12.1308,-0.353406,-1.74808,-0.41401847210213,0.0240734864336055,-0.909950093142008
12.1709,0.2256,-1.75386,0.804821222153784,0.333678447171693,0.490837543657753
12.1962,0.808476,-1.75752,-0.028092845311834,-0.016361529620106,0.999471406489839
12.1694,1.39152,-1.75371,-0.0294638649179193,0.118813457852694,-0.992479341294913
12.0909,1.96996,-1.74244,-0.339162006947919,0.0904351044339672,-0.936370986804417
12.1548,2.58014,-1.75167,0.471981930739192,-0.171458909577106,-0.864774478914783
12.1883,3.20096,-1.75646,0.311375766096872,-0.19314420656496,-0.930451743916888
12.1045,2.97424,-1.74441,0.216976933255626,-0.133812704104814,-0.966961824817889
12.0236,2.35332,-1.73275,-0.0204372917930938,-0.183750125734837,-0.98276050408866
12.0467,1.76678,-1.73605,0.158421854758676,0.0383753991108261,-0.986625483493056
12.0911,1.18831,-1.74241,-0.521607535186924,0.290965211217156,0.802037919987314
12.1332,0.61089,-1.74843,-0.430496157209336,0.418167611694982,0.799880558056832
12.0986,-0.0640673,-1.74344,-0.00991874754347132,0.109079552482668,0.993983535918654
12.1232,-0.787519,-1.747,-0.100775001631485,0.253839908971908,0.961982172214905
12.1835,-1.37679,-1.75574,0.236571791145919,0.0396854025581142,0.970803201713825
12.2155,-1.97367,-1.7604,-0.0742013860089535,-0.164451622932694,-0.983590269385151
12.3174,-2.64875,-1.7751,0.571420986820148,-0.397028693170392,0.718224388767813
12.1271,-3.28809,-1.74764,0.959727009723527,-0.280466141572146,0.0162114230951619
12.2761,-2.94757,-1.76915,0.0421746242716323,0.216406454688792,-0.975391996807732
12.1782,-2.26661,-1.75503,-0.171223288842386,-0.080553721985515,0.9819336450251
12.093,-1.51269,-1.7427,-0.118150886278346,-0.177147111938519,0.97706666548577
11.907,-0.868508,-1.71586,-0.0145567440435146,-0.0346210406544709,0.999294493503718
12.1205,0.272823,-1.74659,0.92380512833706,0.00248149668842194,-0.382854968666117
12.0573,0.847377,-1.73751,-0.00549643833399495,0.0250540117125022,0.99967098870716
12.0657,1.42823,-1.73876,-0.0294638649179194,0.118813457852694,-0.992479341294913
12.0831,2.01799,-1.74132,-0.142643508442122,-0.000111638195901959,-0.989774124250698
12.1205,2.6232,-1.74673,0.00275858352105057,0.0231776388736951,0.999727556523875
11.9115,2.87671,-1.71661,0.46661991156242,0.116007367655179,0.87681705548147
11.9355,2.28689,-1.72005,0.192231989528165,-0.194760639345321,0.961829067747407
11.9433,1.70319,-1.72114,-0.016314316630124,0.0181367166698143,-0.999702407009871
12.0095,1.13215,-1.73064,0.129501989885117,0.0141215999273715,-0.991478600389986
11.9788,0.460113,-1.72619,0.641822900227922,-0.0123603008076175,-0.766753276945697
11.9849,-0.253897,-1.72705,0.0686398204881207,0.112732501757518,0.99125171278079
12.0214,-0.828862,-1.73233,0.124718913926297,0.0971709279578546,0.987422403669703
12.0552,-1.41081,-1.73725,-0.0108009639222746,-0.0125729369971273,0.999862620780283
12.1388,-2.06034,-1.74935,-0.281114180495645,-0.0647610238954737,0.957486724350929
12.1877,-2.72233,-1.75641,-0.0287497834878396,0.0125030487644539,0.999508441045395
12.1219,-7.49415,-1.65553,-0.243362108802999,0.356196202033937,-0.902163593621221
12.1718,-7.28965,-1.66295,-0.523907648021778,-0.304567353055936,-0.795461817937724
12.181,-6.94932,-1.66503,-0.0106099280221816,-0.282556236817212,0.959192057130927
12.2578,-6.65337,-1.67622,-0.0535868076008987,0.321204272878555,-0.945492606600233
11.9734,-6.0681,-1.63808,0.307229530909996,0.34222890850994,-0.887969250321721
11.8009,-5.568,-1.61508,0.704178846140389,-0.0323307701695657,0.709286172111535
11.7705,-5.05423,-1.61148,0.97138091870747,-0.00581896161743905,-0.237455786319741
11.6615,-4.52734,-1.59694,0.940194593151786,0.337846327751932,-0.0435199475261912
11.6826,-4.06765,-1.60011,0.871280806466076,-0.26774547445488,-0.41131753815362
11.9127,-3.59033,-1.63181,-0.305027399613748,-0.094772194093728,-0.947616228602874
12.3726,-3.17624,-1.69492,-0.395368075337624,0.602987042554095,0.692885785332394
12.3155,-2.59463,-1.68712,0.571420986820149,-0.397028693170392,0.718224388767813
12.2564,-2.02825,-1.67901,-0.092083322146254,0.0609547622868869,-0.99388388594295
12.2335,-1.4795,-1.67585,-0.0782149709436884,-0.126243914421383,0.988910962823167
12.1991,-0.937621,-1.67109,0.520603215647295,-0.629951861620604,0.576309763840968
12.1907,-0.403225,-1.66993,0.581535526420456,-0.54274581240532,0.60600611764847
12.1719,0.12879,-1.66734,0.606508918291792,-0.6536779658738,0.452605842829732
12.1797,0.661097,-1.66842,-0.430496157209336,0.418167611694982,0.799880558056832
12.1968,1.24641,-1.6708,-0.125401226849998,0.116301450818333,0.985265702662011
12.1617,1.83123,-1.66603,0.133578518365515,-0.641582540014844,-0.755333452045767
12.235,2.4933,-1.6761,0.15223186542105,-0.0803138351586204,-0.985076213819287
12.2848,3.11909,-1.68289,-0.0995673416842279,0.0369714521714007,0.994343731409956
12.2803,3.70113,-1.68217,-0.190142408068252,-0.0553556597186046,0.980194682494822
12.3144,4.28761,-1.68663,-0.269566999102754,0.00469248458129079,0.962970203891683
12.2748,4.86539,-1.68086,-0.286093672860144,-0.180402039640631,0.941066158377238
12.3142,5.39088,-1.68581,-0.115741067130456,-0.0589718138726887,0.99152727171171
12.3095,5.91448,-1.68454,-0.208103856675969,-0.267869091045907,0.940711929816364
12.2395,6.31188,-1.67431,-0.188129227452888,0.0276973087001048,0.981753662009341
12.2439,6.75803,-1.67409,-0.148682323531417,-0.0992601181694353,0.983890743736463
12.2612,7.11015,-1.67572,-0.168043978631644,0.0388938744836747,0.985011922655404
12.3221,7.49831,-1.68319,0.427635279484203,0.0666178341083351,-0.9014932789096
12.3637,7.76471,-1.68822,-0.12649512401259,-0.195839290262568,0.972443291915006
12.3858,7.65727,-1.69156,-0.12649512401259,-0.195839290262568,0.972443291915006
12.4378,7.44901,-1.6993,-0.0578597094454401,-0.20914850762236,0.976170659148404
12.3534,7.04767,-1.68859,-0.00602235323610169,-0.614861972433893,0.788611746118584
12.3826,6.2755,-1.69407,0.0190786911582673,0.0298897110386665,0.999371106605406
12.4175,5.85895,-1.69947,-0.0861241504841026,-0.465633728830292,0.880776851012213
12.3855,5.31829,-1.69567,-0.0976392497170007,-0.0936885912067818,0.990802212751057
12.4238,4.82332,-1.70134,-0.172988448679122,-0.702518169112532,0.690321098250928
12.4846,4.24836,-1.70998,0.127165412350985,0.266903846598276,0.955296443295299
12.4958,3.67013,-1.71171,0.190779662188749,-0.103144775292327,0.976198891530329
12.4025,2.47621,-1.69904,0.231427296417925,-0.0240056447509936,0.972555980647273
12.3747,1.91354,-1.6952,-0.172871160714618,0.0441464836805601,0.983954597413836
12.4451,1.37165,-1.70481,-0.106896595605075,-0.012672082931821,-0.994189386466288
12.4365,0.724535,-1.7036,0.144346192322274,0.00653758683119454,0.98950565269759
12.4445,0.0822951,-1.70469,-0.321743467970802,-0.0102108590643066,-0.946771820015409
12.4448,-0.559988,-1.70474,0.555641086728152,0.111359806899676,0.823930807863637
12.5111,-1.21168,-1.71385,0.448900154163198,0.0780879635956211,0.890163424059732
12.6048,-1.8809,-1.72673,0.216542232054786,-0.036025184329595,0.975608347561023
12.7457,-2.52721,-1.74605,0.0131754144972482,0.078576398779981,0.996821026066162
12.4571,-3.09277,-1.7065,0.954313445098887,0.0358210681685719,-0.296652489587995
11.8165,-3.65246,-1.61861,-0.657850780428982,0.723230463247319,-0.210166714110604
11.6541,-4.15012,-1.59616,-0.591782644405315,-0.0451136894669293,0.804834179693764
11.6528,-4.61883,-1.59568,0.915264226155172,0.25008439514135,-0.315830954194422
11.8033,-5.1672,-1.61586,0.915199950686458,0.308904357513732,-0.258818755449704
11.8513,-5.69435,-1.62184,0.765943903123297,0.450873117416581,0.458304886794045
12.0522,-6.21526,-1.64868,-0.616200791951719,-0.478164260399933,0.625823876241758
12.6131,-6.96181,-1.72457,0.198610460166176,0.136860883743619,-0.970475648130078
12.5724,-7.29062,-1.71826,0.152944994957954,-0.0666444835925992,-0.985984959988735
12.6159,-7.9231,-1.72265,-0.267198722746099,0.197911215492958,-0.943099142903308
12.26,-6.54302,-1.67673,0.436614111677163,-0.0231605470294909,-0.899350713873991
12.0153,-5.98318,-1.64397,0.853748987618275,-0.0663931259062423,0.5164345253497
11.9405,-5.53124,-1.63431,-0.727550671982502,0.0912230212856959,-0.679962043121026
11.7939,-4.96603,-1.61477,-0.577867640704825,-0.0518777940263964,0.814480008541151
11.8431,-4.50201,-1.62188,-0.304599557057671,0.502300325212871,0.809267256925247
12.0858,-4.11268,-1.65537,-0.172620250315697,0.00769750149138965,0.984958373562932
11.9611,-3.51307,-1.63846,-0.701702146505975,0.666646934115533,0.251388072157905
12.4811,-3.04621,-1.70979,-0.582530551751116,0.637536501026319,0.504187828230371
12.8891,-2.50254,-1.7657,-0.0186141568316657,0.0482120115031144,0.998663664660065
12.7835,-1.85575,-1.75121,0.0234089387750861,-0.137323356735396,0.990249623721387
12.7033,-1.2812,-1.74018,0.55414473843189,-0.738220546025665,0.38464793551223
12.6351,-0.719341,-1.73081,-0.163741454659339,-0.0171584273431503,0.986354056308967
12.6046,-0.166715,-1.72662,-0.200192981560971,0.0378731637424046,0.979024204808988
12.6,0.383398,-1.72598,0.449229319766084,0.214100865899712,-0.867383327879603
12.6134,1.03662,-1.72786,-0.184659748428345,0.0748304023076345,0.979949584519968
12.5936,1.69232,-1.72518,-0.183384547261383,0.0163961955196681,0.982904508382283
12.5857,2.30571,-1.72413,-0.129861221667524,-0.0827107371493488,0.988076412564954
12.6568,2.94755,-1.73386,-0.155581943985149,-0.0628710139703623,0.985820213988403
12.6876,3.62945,-1.73801,-0.11406431163499,0.00543479306534661,0.99345850232185
12.7135,4.22646,-1.74139,-0.0222135959361198,0.12432826835772,0.991992458561433
12.6654,4.8146,-1.73449,-0.00287965939151053,0.105128272319277,0.994454500679117
12.6613,5.64959,-1.73322,0.154955875864625,0.0165821984615359,0.987782216497751
12.6468,6.18671,-1.73054,0.108885287703361,-0.159367801408443,0.981196156737273
12.6126,6.61734,-1.72516,0.100579555150532,-0.157846031688054,0.982328042644643
12.6076,7.07528,-1.72359,-0.218285804661553,-0.0487485178405142,-0.974666552976766
12.7031,7.48663,-1.73584,-0.0219724209083026,0.149228716193851,0.988558548080266
12.6101,6.72987,-1.72461,0.167419021251108,0.000301022776906097,0.98588578481922
12.659,6.30373,-1.73205,0.14611860357462,0.00105326105702021,0.989266518351121
12.7054,5.88554,-1.739,-0.0497519107738583,0.130369035625956,0.990216472254582
12.7077,5.35078,-1.73988,-0.0519167117570988,0.119982024978114,0.991417656047381
12.7334,4.7379,-1.74386,-0.116311226742187,-0.122758405865665,0.985597317530363
12.7543,4.14034,-1.74701,-0.141124802809461,-0.114291515144956,0.983372380941148
12.7363,3.54639,-1.7447,-0.0849207238762159,0.0443525763137175,0.995400080184182
12.7285,2.91107,-1.7437,-0.063970119420891,0.0879934471577115,0.994064875688996
12.6677,2.26883,-1.73536,-0.135693833876427,-4.82722820027426e-05,-0.990750816864515
12.6614,1.65032,-1.73447,-0.033637682522066,0.105579652439681,0.993841759690777
12.6833,1.09304,-1.73743,-0.123448664080054,0.0344885454298055,0.991751464617515
12.6812,0.537016,-1.73711,0.00554576223858266,0.0172095850574915,0.999836523989468
12.6923,-0.0167867,-1.73863,-0.0350813964651971,0.16495564643826,0.985676889416703
12.6898,-0.621472,-1.73829,-0.0973064140349395,0.144186012336761,0.984754718513236
12.8115,-1.18949,-1.75499,-0.143966631204957,0.17982345362201,-0.973106949223439
12.8957,-1.76766,-1.76657,0.11397125175393,-0.127163750442844,0.985312099969828
13.0083,-2.47215,-1.78202,0.00259551002257244,-0.00548597281685795,0.999981583545405
12.6012,-3.0226,-1.72625,0.367934087589019,-0.719820900383631,-0.588627538058605
12.0743,-3.82565,-1.65389,-0.158234236255717,0.0224001656616532,0.987147485968992
12.1722,-4.43161,-1.66706,0.86721723542965,0.462816636094607,-0.183670977369393
12.2178,-4.94278,-1.67298,0.978619064916421,-0.185865864732287,0.0880829501630713
12.0048,-5.35665,-1.64335,-0.389880462613478,-0.257530462204939,0.884121759662553
12.012,-5.87617,-1.64368,0.312549497772539,-0.319127255040316,-0.894690229371354
12.0087,-6.30046,-1.64255,0.882085220729544,-0.219421238662289,0.416869264151745
12.8741,-7.58741,-1.7592,0.106563933310029,0.211827326821725,0.971479959509746
12.2341,-4.55211,-1.67548,0.851694042245809,-0.268979683779146,0.449741245736997
12.3844,-4.11704,-1.69631,0.776643930486289,-0.605565966814466,0.173534045866711
12.0327,-3.44212,-1.6483,0.651632746165568,-0.65088101730337,0.389523639127142
12.6491,-2.98105,-1.73281,0.603240911524418,-0.578263761593359,-0.549282645539698
13.03,-2.42275,-1.78499,-0.00994146300758457,-0.1022939800461,0.994704533497056
12.95,-1.82748,-1.77401,0.0560571628521088,-0.0837646975965554,0.994907568535655
12.853,-1.14192,-1.76068,-0.181343853617396,0.0824355437134521,-0.979958564372933
12.7437,-0.52278,-1.74567,0.160980655637573,0.10434478541799,-0.98142620418785
12.7418,0.0337038,-1.74541,0.151618975090067,0.193503060316019,0.969313288901464
12.7284,0.58962,-1.74359,0.131485898816691,0.126913453381529,0.983160431345333
12.7406,1.14892,-1.74528,-0.0734882477327319,0.012865647875821,0.99721309284922
12.734,1.76266,-1.74442,0.0140322497444538,-0.0451244392829752,0.998882816423681
12.7226,2.38301,-1.74289,-0.135743197452379,-4.7479843532794e-05,-0.990744054784619
12.8018,3.03493,-1.75373,0.135779511764206,-3.53298897334958e-05,0.990739079140856
12.8342,3.96702,-1.75801,-0.10457183116014,-0.166638386796657,0.980457230160308
12.8095,4.56157,-1.7544,-0.135568735065385,0.152112790397404,-0.979021356799884
12.7577,5.16121,-1.74691,0.0906704569561455,-0.144983534667612,0.985270847488471
12.8136,5.82627,-1.75394,-0.0902369187093565,0.0176408694544842,0.995764077594051
12.7789,5.27495,-1.74972,-0.161392216051688,-0.0349068990644193,-0.986272812661706
12.8241,4.66896,-1.75635,0.0381426301874162,-0.190045214112026,0.981034125989254
12.8181,4.06134,-1.75579,0.000349583662068581,-0.197399385616137,0.980323089776853
12.7965,3.46606,-1.75295,-0.135706366361232,0.000127893075124804,-0.990749093248332
12.7519,2.86321,-1.74689,-0.13573155292116,1.50469659372446e-05,-0.99074565117148
12.7008,2.22279,-1.73989,-0.135693833876427,-4.82722820026593e-05,-0.990750816864515
12.5449,1.58455,-1.71851,-0.121698931142198,0.072465290324806,0.989918255138771
12.7468,0.438495,-1.7461,-0.135803946630652,-8.86598575433606e-06,-0.990735730657239
12.7537,-0.118077,-1.74703,-0.135629085264315,-2.20563815972808e-05,-0.990759683648806
12.7737,-0.676399,-1.7498,0.0328589902693438,0.0861854831569407,0.995737088418165
12.8952,-1.35225,-1.76647,-0.142409023975477,-0.0610834905356576,-0.987921290930777
12.9889,-1.99093,-1.77935,0.205710426486636,0.0282664833447849,-0.978204593300402
12.8935,-2.60973,-1.7663,0.0262989187757275,0.168221787974294,0.985398293545285
12.3849,-3.12707,-1.6966,-0.25270232109294,0.812631257624285,0.52513995853126
12.2713,-3.98353,-1.68085,0.998842945036975,-0.0470780155649049,0.00981995928372385
12.2061,-5.03853,-1.67129,0.753263608688858,0.303238154005079,0.583644204786299
12.3736,-5.62617,-1.69371,-0.589830925892461,-0.344472009167574,0.730368751906115
12.3235,-3.26809,-1.68818,0.528988783727808,0.0765462423403172,-0.845169532977705
12.7797,-2.85172,-1.75071,0.117800109926342,-0.426560912244139,-0.896754661123537
12.9025,-1.71647,-1.76749,-0.135667367411523,6.61114052083705e-05,-0.99075444033772
12.808,-1.08673,-1.75451,-0.0114535211418919,-0.125053268302803,0.992083916279384
12.7085,-0.470836,-1.74086,0.0483669538310565,0.0740391323595901,-0.996081745970954
12.493,0.181765,-1.71133,-0.221746648249705,-0.106207877366847,-0.969303002561764
12.7457,1.35362,-1.74599,-0.316571596298218,0.0118242086310715,-0.94849491960023
12.685,2.01309,-1.73772,-0.133469527277674,-0.238767055944878,0.961860789451202
12.7464,2.65023,-1.74615,0.226454268759596,-0.168922590027828,0.95926201985633
12.7402,3.28856,-1.74526,-0.070486037366226,0.0597810667057433,0.995719811292278
12.6663,3.37692,-1.73513,-0.0607560599227813,0.0780812299187675,0.995093976826828
12.6662,2.79123,-1.73516,-0.0681263193014624,0.00545414220284629,0.997661794874028
12.5995,2.15358,-1.72602,0.13566908437161,3.75679293347086e-05,0.990754206720526
12.6493,1.54677,-1.7328,-0.135668516566613,-7.66685618671936e-05,-0.990754282218627
12.6335,0.9374,-1.7306,-0.128014877970111,-0.0265950511855649,0.99141560118385
12.6508,0.334711,-1.73295,-0.0104125651839674,0.0562541519254521,0.998362183216811
12.6533,-0.217576,-1.73329,-0.135667041679313,4.11478812845645e-05,-0.99075448629256
12.731,-0.775491,-1.74395,0.13578504881074,-4.8970581087715e-05,0.990738319699681
12.859,-2.65589,-1.76157,0.0558879472475683,0.0870502501873092,0.994635004056654
12.2403,-3.1941,-1.67679,-0.586867301509154,-0.729399122471696,0.351516273530661
12.745,-2.95034,-1.74596,-0.376612487326897,0.921043933725587,0.0992023514678219
12.8079,-2.32892,-1.75457,-0.0398022629522432,-0.126587380005706,0.991156604723578
12.7863,-1.64941,-1.75158,-0.04645625950325,-0.0513455148148644,0.99759984666266
12.7135,-1.02791,-1.74156,0.0797045051949413,0.0417176417736086,-0.995945194383947
12.6499,-0.368174,-1.73283,-0.0660328954283062,-0.0576068770969446,0.996153153100713
12.6407,0.234081,-1.73156,0.11376876627347,-0.101597769725868,0.988298821717067
12.7021,0.8412,-1.74,-0.0352402557795686,-0.0783750765497915,0.996300894182277
12.7102,1.45194,-1.74113,-0.767555428645694,-0.2930429471842,0.57007411365727
12.6404,2.05746,-1.73161,-0.163038682519204,0.124653902056555,-0.978713335305327
12.736,2.70082,-1.74472,-0.0467721892579832,0.122527371077658,-0.991362398746701
12.7273,3.33915,-1.74349,-0.0768250863651225,0.0312167048625912,0.99655578039692
12.6816,3.11291,-1.73725,0.0388408088175105,0.00364048464772166,-0.999238779492635
12.5943,2.46258,-1.72531,-0.173832432904379,-0.185509087941389,-0.967144592892758
12.5974,1.84574,-1.72571,-0.017506164767124,0.144985577985611,0.989278887054265
12.645,1.24154,-1.73219,-0.0417669447107529,0.053285035060908,0.997705481275956
12.6889,0.638255,-1.73818,0.0728671854834183,-0.0578354394146185,-0.995663314191822
12.655,-0.0669491,-1.73352,-0.0495290362239589,0.052926358562579,0.997369377482601
12.6909,-0.823597,-1.73845,0.19267114577929,0.166935500208796,-0.966959341624111
12.8596,-1.45178,-1.76161,0.135001729483685,-0.0917170689848648,-0.986591360337825
12.9241,-2.0861,-1.77048,0.231062367326364,-0.0160255220797006,-0.972806951582692
12.8984,-2.77094,-1.76697,-0.149969944631793,0.19832522055464,0.968594921832182
12.1032,-3.27828,-1.65798,0.816380276224092,0.0453404779308434,-0.575732130120665
12.1517,-3.38362,-1.66462,-0.63606371769237,-0.040663719653451,0.77056434445107
12.8289,-2.91617,-1.75744,0.441014831992833,-0.570892521737158,-0.692522668644805
12.9476,-2.24834,-1.7737,0.0201317698953565,-0.045614751341152,0.998756229668163
12.854,-1.60632,-1.76085,0.135663321263696,-5.2160518663559e-05,0.990754995214752
12.7828,-0.931482,-1.75105,-0.135788565067966,2.96355516527062e-05,-0.990737838541819
12.7007,-0.319222,-1.73979,-0.13577013139633,1.55902773265118e-05,-0.990740365170193
12.751,0.286739,-1.74668,0.167465523029558,-0.119854772231055,0.978565343842647
12.6987,0.891596,-1.73954,-0.146638348136872,0.0969873935257608,-0.984424014514462
12.6921,1.50091,-1.73866,-0.767555428645688,-0.293042947184199,0.570074113657279
12.6933,2.11781,-1.73886,-0.13565005498623,-4.19862516458109e-05,-0.990756812148868
12.7496,2.75661,-1.74658,-0.135666398333498,8.68443022408304e-06,-0.990754575204071
12.7056,3.06542,-1.74055,-0.0420808019433181,-0.0149923267270565,0.999001719841921
12.5916,2.41023,-1.72494,-0.0383058740857584,-0.102369327870236,0.994008642176677
12.5922,1.79398,-1.725,-0.0345625816037432,-0.13140138043843,0.990726554187259
12.6497,1.19135,-1.73284,-0.073488247732732,0.0128656478758211,0.997213092849221
12.5471,0.481475,-1.71875,-0.658753782050329,-0.163939775797619,0.734280058660055
12.6277,-0.267256,-1.72978,0.155468967730746,0.0489267303732084,-0.986628387554161
12.7616,-0.879051,-1.74815,-0.135811584952583,3.05362070040817e-05,-0.990734683182237
12.8416,-1.50137,-1.75914,-0.135622263919172,5.28874046258551e-05,-0.990760616260235
12.9685,-2.19899,-1.77656,-0.179070982081124,0.12125187014814,0.976335786173015
12.9359,-2.83273,-1.77211,-0.224492977741482,0.406983757933505,0.885419179667509
12.641,-7.80616,-1.63663,0.0152072112787799,-0.0385199407278741,-0.99914210945763
12.8229,-7.67101,-1.66082,0.195225179344439,-0.139146463396097,-0.970837468927879
12.9155,-7.36017,-1.67364,0.106563933310029,0.211827326821725,0.971479959509746
12.9243,-7.00749,-1.67551,-0.0623154466100995,-0.144456285547087,0.987547045299474
12.1066,-6.12909,-1.57025,0.977693185638754,0.209642082352286,-0.0128931013546821
12.3059,-5.8002,-1.59671,-0.541419371043175,0.71706716780163,0.438953006049807
12.363,-5.3032,-1.6047,0.974077219524821,-0.0908827686115873,-0.207156686525648
12.2737,-4.76022,-1.59351,0.89302064304531,0.431266707120352,0.128542438223768
12.2908,-4.27517,-1.59602,-0.516244308893295,0.472469048016131,0.71432822441929
12.5648,-3.78319,-1.63181,0.836469057101859,-0.535141257594576,-0.118081967002681
12.4802,-3.2008,-1.62094,0.446708907898195,-0.892397942683116,0.0638518872026833
13.0424,-2.74519,-1.694,-0.223489085096437,-0.316616147467043,0.921849686231918
13.1724,-2.1778,-1.71088,0.058452666833732,0.0735007520021193,0.995580697480193
13.0936,-1.58205,-1.70061,0.412408600316384,-0.784158798513264,0.463696156010932
13.001,-0.998332,-1.68855,0.155638310759299,-0.110559190440696,0.981607549702573
12.9326,-0.427369,-1.67965,0.0383618722629423,-0.125321329534241,0.991374263898479
12.9016,0.136387,-1.67563,-0.0363057523880498,0.018861333416595,0.999162720704333
12.9208,0.70068,-1.67814,-0.0178319104005463,0.100265233354339,0.994800937852326
12.9476,1.32191,-1.68164,-0.0454511349042609,0.140307738819705,0.989064170194844
12.9127,1.99487,-1.67714,0.028455415070364,0.0354722130025861,-0.9989654706034
13.0514,3.92971,-1.69501,-0.0696163134043933,0.0414629759496138,0.996711789101234
13.0552,4.64443,-1.69523,0.165551523922224,0.0939221509891219,-0.981718555636291
13.0128,5.15269,-1.6894,-0.0962318969391712,0.0202035994988485,0.995153875829652
13.0019,5.79556,-1.6874,-0.0544996678719304,0.00820760064106568,0.998480055631341
12.9812,6.23064,-1.68417,-0.141822603028395,-0.0360032592093819,0.989237137695787
12.9435,6.78363,-1.67842,-0.160373098733963,-0.0292825281249911,0.986622016148573
13.0274,7.18265,-1.68865,-0.118493678299839,0.0779964169386446,0.989886764810858
13.0466,7.55717,-1.69036,-0.177503376832123,0.0181255917000948,0.983953258106662
13.1406,7.98731,-1.70165,-0.129152773597002,0.0642034103510659,-0.989544078437891
13.1228,8.232,-1.69867,-0.324186439202739,-0.0613265077745787,0.944003290291525
13.1586,8.12582,-1.70365,-0.291990269565723,-0.210091223881762,0.933061284228854
13.1958,7.89408,-1.70912,-0.121841900470738,-0.265675781479106,0.95633201892708
13.1959,7.51996,-1.70998,-0.180463664983203,-0.000473239016294799,-0.9835815378837
13.0989,7.10214,-1.69814,-0.288026029238253,-0.395972153687214,0.871921475813937
13.0809,6.6223,-1.69661,0.15094739022242,-0.0615165764196834,0.986625864353171
13.1476,6.1969,-1.70591,-0.147002164093093,0.0155472774128221,-0.989013976603463
13.161,5.64547,-1.70827,-0.134530636002603,0.0662650469202812,-0.988691282217755
13.1755,5.10998,-1.71059,0.104259615769471,0.00694148964979853,0.994525891186873
13.2393,4.6051,-1.71919,-0.120463012208997,0.131869127609541,-0.983920319880139
13.2687,3.89336,-1.72325,0.134549983638677,-0.022173710529928,0.990658684141096
13.2704,3.31016,-1.72357,-0.0138969809259452,0.0179255874623538,0.999742740526419
13.1796,2.62889,-1.71182,-0.0350872497875513,0.0259405926943176,0.999047531678555
13.1532,1.97867,-1.70837,-0.026493313696721,-0.0281058874291273,0.999253803305841
13.2134,1.402,-1.71616,-0.0833954537967598,-0.0184358564920012,0.996345982819943
13.2148,0.769172,-1.71632,-0.128626156040376,-0.0605626679137086,0.989842146626143
13.187,0.0871248,-1.71269,-0.144792309263407,-0.100699605165697,0.984324528139802
13.2484,-0.595601,-1.72068,-0.0875293748548397,-0.00315920586587032,0.996156929382022
13.3859,-1.29521,-1.73856,-0.0453633255671332,-0.11419285997258,0.992422369470163
13.5111,-2.01426,-1.75486,-0.00338745285461943,0.103388358426248,0.994635296229268
13.4747,-2.66925,-1.75015,0.0796963131720579,-0.154023772025042,-0.98484779297004
12.5529,-3.11359,-1.63039,-0.452424287859246,0.443775206491629,0.773547561471411
12.4435,-3.84251,-1.61603,-0.222425765722969,0.92215012906284,0.316489997017187
12.1207,-4.31197,-1.57388,0.96109804536017,-0.162199334774749,-0.223566372702806
12.1365,-4.8057,-1.57563,0.53956509418852,-0.832313355254963,-0.126980265386239
12.3941,-5.42025,-1.60862,0.979676605248219,0.190426275785945,0.0630204936478592
12.3884,-5.94611,-1.60726,0.92067077528248,-0.188362621325321,0.341884258818991
12.6484,-6.51575,-1.64034,0.631255637140353,0.0120736539469683,-0.775480849189002
13.3318,-7.35045,-1.7281,0.381596534827198,-0.0654358414684901,-0.922009888916158
13.2829,-7.69405,-1.72098,0.288262647593463,0.159582632482974,-0.944159959653136
13.3542,-8.37716,-1.72862,-0.0558540218061386,0.0591575770139959,0.996684859586977
12.9488,-6.44122,-1.67966,0.302425286624624,-0.0126576837844639,0.953089045709385
12.5035,-5.78601,-1.62248,0.880824699381552,-0.471296348727065,0.0450288866832702
12.3881,-5.21091,-1.60805,-0.614301190050777,0.788543684031539,-0.0288601156645036
12.2021,-4.6338,-1.58428,0.911384307231225,-0.244166871623624,-0.331302253741494
12.3437,-4.19627,-1.60293,0.781472249642765,-0.586757292481982,-0.212172106454855
12.6383,-3.70839,-1.64138,-0.191183698760354,0.670874489000537,0.716502765756406
12.6011,-3.07256,-1.63666,-0.450715859812561,0.735321587149443,0.506119923719119
13.6067,-2.63938,-1.76729,-0.232596067754817,0.0487579753681857,-0.971350466671526
13.6292,-1.97667,-1.7702,-0.120233286281765,0.0953871296455689,-0.988152443891056
13.5533,-1.36566,-1.76031,-0.0824587684822016,0.0560377336448128,0.995017750549382
13.4137,-0.762964,-1.74215,-0.370233749503525,-0.151493974805677,-0.916502343873783
13.3471,-0.176374,-1.73349,-0.0194219292146476,0.00144345963561032,0.999810334558441
13.3175,0.404859,-1.72964,0.149431747708594,-0.107864578377232,-0.982870991284338
13.3413,1.09543,-1.73276,0.207709742288513,-0.0736838931717204,-0.975411373137251
13.342,1.79124,-1.73289,0.188662548592708,-0.0522762184385709,-0.980649600899458
13.3287,2.43955,-1.73118,0.2565098677059,-0.180856447795244,-0.949470185451017
13.4049,3.1188,-1.74106,0.186160307350157,-0.0703883440385854,-0.979994806614199
13.4503,3.84391,-1.74686,0.132906603604969,0.00332863623304593,0.99112297667798
13.4196,4.4568,-1.74269,-0.0853595919133598,-0.0919642189552497,0.992096932008327
13.3845,5.08284,-1.7378,0.194341315247494,-0.0736759931188084,0.978163228314084
13.3942,5.85761,-1.73843,0.033732726194419,-0.0131107840790797,0.99934489067805
13.3389,6.51837,-1.73042,0.10526533237661,-0.195481903845174,0.97504155555992
13.2027,7.03849,-1.71182,-0.0318093598999391,0.121329860315765,-0.99210242899537
13.4102,7.51743,-1.73802,0.210535177637467,-0.0376322910495465,0.976861683989869
13.3788,7.87605,-1.73312,0.199375661062935,-0.101773336488263,0.974623790883315
13.3213,6.8624,-1.72761,-0.124762623937148,-0.0143726411278883,-0.992082514136464
13.4042,6.2028,-1.73936,0.183457214433162,0.0140208408586817,0.982927701560008
13.3713,5.62448,-1.73567,0.108126979484898,0.125501418105417,0.986183527727472
13.3962,4.97955,-1.73939,0.0931841971744914,-0.0834719069513233,0.992143712446365
13.4738,4.36962,-1.74977,-0.148202016350608,0.00876311000411673,0.988918282899386
13.4528,3.74227,-1.7472,-0.0915028123244349,0.0509339214156946,0.994501368016123
13.4411,3.07112,-1.74577,0.208162021346126,-0.0619534712494095,-0.976130288572813
13.3259,2.38448,-1.73082,-0.312072194649172,0.142873900528278,0.939253956006939
13.3489,1.73832,-1.73378,-0.231479326116188,0.0241138910588631,0.972540920392965
13.3493,1.14937,-1.7338,0.138717702861057,-0.0893078327088413,-0.986296867038419
13.3489,0.564775,-1.73373,-0.128844680355641,-5.04191944419446e-05,-0.9916647849964
13.3607,-0.0176544,-1.73525,-0.444721954978859,-0.102279326638979,-0.889809711175405
13.4316,-0.657197,-1.74447,-0.612771886275187,-0.0609687683647704,-0.787904451488144
13.5512,-1.25701,-1.76003,-0.0517634445737493,0.167695011911033,-0.984479013888066
13.6565,-1.8702,-1.77373,0.271525566315381,0.166300294357873,-0.947954681898663
13.6732,-2.48394,-1.77593,0.128824050010005,-1.32919959608541e-05,0.991667466423268
12.769,-2.95308,-1.65847,-0.377860894139818,0.912120340604809,0.158926489091099
12.8782,-3.68042,-1.67257,-0.261823451913796,0.585729379997317,0.767052523257634
12.396,-4.11685,-1.60977,0.525419339041356,-0.849882390826638,-0.0404282070359702
12.2178,-4.93778,-1.58611,-0.75674561577345,0.630460655007135,0.172787255015048
12.4014,-5.5279,-1.60947,0.878171115153252,0.137864413854245,-0.458049010372383
12.369,-6.04444,-1.60461,0.936894110841305,0.348624730660931,-0.0262720810457313
12.7677,-6.69146,-1.65562,0.278222381459718,0.245637903975679,-0.928576505510083
13.3788,-7.87605,-1.73312,-0.26800590655206,-0.0166799879870395,0.963272864796866
12.2339,-4.54752,-1.58848,0.919036516275417,-0.325217266886682,0.222723171383451
12.2828,-3.98336,-1.5951,0.765808861409602,-0.634011552874094,0.107545983693994
12.8796,-3.58282,-1.67276,-0.589509467618878,0.292100899219081,0.753097372365029
12.685,-2.98668,-1.64756,0.444237476234956,-0.844819660962668,-0.298216037729896
13.6047,-2.58308,-1.76703,-0.034790097890915,0.132629327038008,0.990554950872583
13.6368,-1.92261,-1.77118,-0.00622693084028047,-0.246743778400668,0.969060747916699
13.519,-1.19999,-1.75584,-0.271696147509477,0.0910607655698171,-0.958065311136118
13.3991,-0.549165,-1.74025,-0.272304316127037,0.0310929197555782,-0.961708682377185
13.3235,0.0352101,-1.73042,-0.249729843484138,-0.071583380188997,-0.965666000723908
13.3219,0.616543,-1.73022,-0.047481914961684,0.034203148389116,0.998286337876986
13.32,1.20006,-1.73,-0.128828217905408,-7.12487267824739e-05,-0.991666922507218
13.3227,1.84243,-1.73038,0.187125416053538,-0.0434508593156771,-0.981374597944903
13.3434,2.49695,-1.7331,0.255250836647457,-0.171721582688212,-0.951503393808886
13.4288,3.18053,-1.74416,0.168951486520398,-0.0285939943832338,-0.98520951004736
13.4502,4.1534,-1.74678,0.00592129153269751,-0.136101212624519,0.990677242207935
13.1974,4.80007,-1.71364,-0.0239069441012137,-0.117386060214533,-0.992798555040775
13.4018,6.08739,-1.73918,0.0819571464354206,0.00395438113650093,0.996628009348518
13.2932,6.61253,-1.72433,0.0164568532778684,-0.0219738973797931,0.999623088876069
13.3642,5.51096,-1.73485,0.0206197414037767,-0.098296986908544,0.994943480117912
13.2827,4.51551,-1.72487,-0.0627262422926391,-0.199618987123932,0.977863834338637
13.4046,3.00692,-1.74103,-0.18188615125663,0.0806404038905286,0.980007425095046
13.2863,2.32308,-1.72567,0.220193766290911,-0.156383426832992,-0.96283899437995
13.331,1.68227,-1.73145,-0.231479326116188,0.0241138910588631,0.972540920392966
13.3208,1.0406,-1.73009,0.207709742288513,-0.0736838931717205,-0.975411373137251
13.3158,0.457648,-1.72942,0.149431747708594,-0.107864578377232,-0.982870991284338
13.3601,-0.123578,-1.73518,0.215057504803991,-0.133498410286114,-0.967433948173498
13.4413,-0.711092,-1.74573,-0.612771886275187,-0.0609687683647705,-0.787904451488144
13.5725,-1.42197,-1.76281,-0.0824587684822016,0.0560377336448128,0.995017750549382
13.6501,-2.09033,-1.77292,0.308351199542316,0.21450870166046,0.926771576308185
13.5128,-2.7325,-1.75509,0.104160158239112,-0.274456484396456,-0.955941577507925
13.1536,-3.31797,-1.7084,-0.320852214243881,0.0339930969096116,0.946519057376708
12.2629,-3.8816,-1.59254,0.891544898690346,-0.24423890386762,-0.381438135818595
12.2652,-4.46102,-1.5926,0.801329252653777,-0.0903687472572006,0.591358536220205
12.1832,-5.02397,-1.58154,0.88518934633677,-0.459689836680766,0.071589630424334
12.5434,-5.69749,-1.62778,0.909995516360663,-0.414058748722113,-0.0215293476484502
13.0313,-3.39724,-1.69251,0.249245447855372,-0.489409250102598,0.835676547856519
13.0569,-2.85652,-1.69588,-0.0611154082239511,0.76649605336774,0.639334581458956
13.6189,-2.36269,-1.76887,-0.0289909014016992,0.0469110961159275,0.998478280533492
13.56,-1.7476,-1.7612,-0.10065299372624,-0.110099914614694,0.988810893778878
13.4865,-1.14324,-1.75162,0.1288080896882,-4.44798837030969e-05,0.991669538733754
13.3517,-0.494211,-1.73409,-0.272304316127037,0.0310929197555783,-0.961708682377185
13.3469,0.19401,-1.73346,0.271119222742338,-0.0249681282051431,0.962221886902144
13.1375,0.81694,-1.70628,0.180128292749486,0.0364362606121383,-0.982968054955887
13.3433,1.46929,-1.73304,0.246868256861686,0.0193503029730883,0.968855835265971
13.2842,2.10621,-1.72539,-0.261083412041163,0.0210729736843904,-0.965086204303554
13.3771,2.77873,-1.73747,-0.434122867275497,-0.00451023104983399,-0.900842380177786
13.4121,3.4587,-1.74197,0.262204006338609,-0.0469323010137587,0.963870540156476
13.4211,4.24822,-1.74296,-0.148202016350608,0.00876311000411695,0.988918282899386
13.3488,3.55547,-1.73373,-0.0437880321252252,0.0478841971045732,0.997892635462478
13.3799,2.94572,-1.73783,-0.0931426261584436,0.0302683659972947,0.995192582976864
13.2708,2.26619,-1.72366,0.201290142878768,-0.0700770387457033,-0.977021743371394
13.3129,1.6264,-1.7291,-0.128796924885499,-5.29082953553174e-05,-0.991670988453706
13.2753,0.984116,-1.72418,-0.158961304573879,0.11201795990601,0.980909414934257
13.2694,0.350754,-1.7234,0.0461344621871689,-0.0548749413901568,-0.997426865592725
13.2596,-0.227792,-1.72213,-0.0595441173441917,0.0250439971156756,0.997911467164383
13.4353,-0.817639,-1.74496,-0.128785299519627,6.35753694617075e-05,-0.991672497645171
13.6038,-1.47979,-1.76687,0.451062039298872,0.281915426097717,0.846797927035539
13.6174,-2.1406,-1.76867,0.311709777241475,0.143339829913637,0.93930330986982
13.5263,-2.79109,-1.75685,-0.203796863808301,0.243769964700441,0.948178803080857
13.1258,-3.4775,-1.70477,0.295512185560602,-0.511450188607202,-0.806902257252298
12.8529,-2.91887,-1.66938,-0.329754283243624,0.931836327051206,0.151470037532844
13.5974,-2.41452,-1.76608,-0.0331502269454756,0.0544468677915877,0.99796623241528
13.59,-1.80625,-1.76509,-0.137924406895581,-0.203968004840078,0.969213036944954
13.4662,-1.08777,-1.74898,-0.0364595003838404,0.0129404268402568,0.99925134485021
13.3675,-0.388701,-1.73614,-0.128779360224007,7.70665642674251e-06,-0.991673270952133
13.2098,0.244396,-1.71565,-0.0715431459855954,0.037756438262218,0.996722644285879
13.2144,1.50813,-1.7163,-0.0926740909350011,0.0512499619924941,0.994376666191006
13.4631,2.85232,-1.74864,0.184878512194502,-0.11672262410743,0.975805187909053
13.4825,3.53389,-1.7511,-0.326488151216421,0.0246305068333439,-0.944880323241211
13.4397,3.29585,-1.74557,0.257883964001612,0.0604468769650394,0.964283172193723
13.4208,2.62173,-1.74315,-0.39516318922945,0.0227251687101031,-0.918329799464826
13.3692,1.957,-1.73643,-0.379560503627672,-0.0577878887142052,-0.923360376020037
13.4335,1.31774,-1.74475,-0.279379711188695,-0.047734669316666,-0.958993419331619
13.4183,0.674323,-1.74275,-0.269759179705855,-0.136934919293885,-0.953141549216275
13.3976,-0.0708128,-1.74005,-0.44472195497886,-0.102279326638978,-0.889809711175405
13.5309,-0.877306,-1.75738,-0.128774823360252,6.65574940835372e-05,-0.991673857898168
13.7087,-1.54621,-1.7805,-0.459325131738015,-0.395182522420268,0.795519451256479
13.7435,-2.21628,-1.78505,0.150281746376777,-0.111315227054061,-0.982356512133884
13.2255,-2.83851,-1.71777,-0.0350494144796382,0.760972485934752,0.647836718776359
12.9639,-3.50805,-1.68374,-0.524510839188727,-0.0805080310686346,0.847588836940995
13.5289,-3.24203,-1.75717,0.141408944556745,0.86331385496854,0.484450924468832
13.7365,-2.55172,-1.78415,0.0260730579958977,-0.229149755281392,0.973041923712036
13.5978,-0.989959,-1.76607,-0.212689359668249,0.140235299954358,0.967004290027
13.5175,-0.339439,-1.75562,-0.111699714364542,0.0481512760361783,0.992574747022594
13.5183,0.303715,-1.75573,-0.0314242776878282,0.149046132571717,0.988330797424229
13.5138,0.94795,-1.75516,0.00535650192200477,-0.205851633496648,0.978568552976193
13.479,1.5925,-1.75068,0.215535410663471,-0.0811699154865518,0.973116607385793
13.4751,2.24614,-1.75019,-0.00076429366283507,-0.054436032606343,0.99851696741181
13.5609,2.92925,-1.76134,-0.10688811074609,0.0895664745828086,0.990228649561271
13.4765,3.24831,-1.75036,-0.457660150046426,0.00438802259371993,-0.889116377262954
13.4188,2.56615,-1.74288,-0.633298872683468,0.21102868187786,-0.74458003819787
13.389,1.90572,-1.73899,0.508474707475615,-0.0184496040432468,0.860879250515562
13.4385,1.26447,-1.7454,-0.00755163975001624,0.177818473829407,0.984034330245681
13.4253,0.514701,-1.74365,-0.128844680355641,-5.04191944418891e-05,-0.9916647849964
13.4444,-0.284281,-1.74613,-0.128782277922777,-3.9971337351119e-08,-0.991672892083381
13.6015,-0.936045,-1.76655,-0.139545574210284,0.0379308234752202,0.989488901074092
13.7026,-1.60055,-1.77971,-0.135220184953399,0.0426867406081949,0.989895622657973
13.7624,-2.33143,-1.78751,-0.225923599131701,0.118350071123718,0.966929050148143
12.961,-2.88942,-1.68342,-0.159826522390133,0.842496083100153,0.514447113609919
13.541,-8.35295,-1.6572,0.0651627658650382,-0.182322056754125,0.981077204691743
13.5493,-8.09692,-1.65886,0.120210911468356,-0.0468035259649588,0.991644475969687
13.5534,-7.71564,-1.66022,0.0306593498907221,-0.170188561560329,0.984934443391186
13.5258,-7.32607,-1.65757,-0.11451528796849,-0.10606691259032,-0.987742911326147
12.7382,-6.44227,-1.5618,-0.324841954451573,0.666454807394776,0.671055656654852
12.4069,-5.84197,-1.52178,-0.533303785429039,0.561591149397989,0.632615565224965
12.2943,-5.26856,-1.50853,0.945852478449299,0.179247370172251,0.270616831142579
12.2383,-4.74198,-1.50207,0.926780467817309,-0.14597678807178,0.346076208105349
12.2197,-4.24644,-1.50007,-0.323892253224447,0.891443354817152,-0.316895177390778
12.7541,-3.83665,-1.5659,0.279514386757925,0.957039392217525,0.0771188001673476
13.2603,-3.39777,-1.62816,0.867475976860086,-0.497089046927526,0.0196954054368969
13.3816,-2.81406,-1.64311,-0.0629230971678872,0.883777329508363,0.463657541392207
13.8936,-2.29501,-1.70599,0.00620816244137611,-0.00261995246498557,0.999977297026379
13.893,-1.67717,-1.70589,0.418613699095608,-0.14076754754142,0.897188424183385
13.7542,-1.05525,-1.68882,-0.0355639866358472,0.14271042487076,0.989125339624748
13.6999,-0.452331,-1.68213,-0.621908559728679,0.158213995815047,-0.766940724479041
13.6445,0.144114,-1.67533,-0.0212667984061007,-0.0351193417432201,0.999156822086041
13.6379,0.738922,-1.67454,0.350118405164403,-0.934041373673666,-0.0705961375072703
13.6745,1.3949,-1.67905,0.600108774799277,-0.110920050777994,0.79219076032501
13.6185,2.04686,-1.6722,0.82666147355925,-0.0616494316849562,0.55931221666058
13.6792,2.78247,-1.67965,-0.653281747197104,0.106419203866723,-0.749598500417038
13.762,3.48764,-1.68978,0.982319907785689,-0.168978362567423,-0.0805848109258038
13.752,4.13685,-1.68842,-0.0583377873125265,-0.0240018289055575,0.998008324003696
13.7668,4.78408,-1.68999,-0.329142331760104,0.246120932777634,0.911641273688389
13.6938,5.41714,-1.68063,-0.309998542789901,0.0913689760948439,0.946336416754379
13.6906,5.98138,-1.67975,-0.250940235769816,-0.0782999463496402,0.964830615431244
13.6646,6.55213,-1.6759,-0.0833216720735396,-0.416086665600879,0.905499522734282
13.7309,7.06622,-1.68334,-0.200672142738923,-0.0988105706595043,0.974662588927323
13.8009,7.60122,-1.69104,0.259178608344667,0.10626331810498,-0.959965914083329
13.7789,7.973,-1.68756,0.0339115645922288,0.317571003420055,0.947627914095869
13.7899,8.37306,-1.688,-0.653449576515991,-0.119995156919133,0.747398697662115
13.7668,8.62662,-1.68448,-0.73807538776233,-0.0266251236752887,0.674192720791884
13.8371,8.53558,-1.69343,0.696257857375781,0.0729018145754713,-0.714080052567001
13.8479,8.27535,-1.69541,-0.229477243343505,-0.261624806851356,0.937492749426606
13.8125,7.86312,-1.69195,-0.0279493330795041,0.161903275366986,0.98641074822097
13.8316,7.49169,-1.69504,-0.256234327665403,-0.121174393751657,0.958989434574113
13.7908,6.97466,-1.69087,-0.284867937317756,-0.0210833684640798,-0.958334883984996
13.8558,6.52424,-1.69951,0.155491842201761,-0.0888314471143022,0.983834976513989
13.8459,5.9335,-1.69892,0.0104331036272101,-0.166857768660879,0.985925775799688
13.87,5.3742,-1.70234,-0.0470421333301498,-0.0195544417094857,0.998701487683471
13.9172,4.72678,-1.70851,0.240945135099378,0.170341358102241,0.955473319141789
13.9471,4.08866,-1.71239,-0.212805621483324,-0.0886926777009385,-0.973060828719013
13.9681,3.48105,-1.71509,0.0885263583331817,0.0300998286934576,0.995618945276198
13.8967,2.76944,-1.70636,-0.135542760294516,-0.0511713135274954,0.989449168377847
13.88,2.14242,-1.70431,-0.019414790962707,-0.0470861166099277,0.998702139536344
13.885,1.5276,-1.70491,-0.106584801470449,0.0406136937999099,0.993473808397299
13.8701,0.806609,-1.70305,0.389203264672177,0.156184006551396,-0.907814614811897
13.8805,0.091627,-1.70431,-0.388236620168688,-0.557110985608607,0.73409786573331
13.9909,-0.628431,-1.71787,-0.0290866717857669,-0.11123150152631,0.99336877270862
14.1629,-1.36919,-1.73902,0.165639400437645,-0.0450973889281494,-0.985154716039324
14.2344,-2.12022,-1.74783,-0.0294305805995018,0.0728322406333791,0.996909878399195
14.0949,-2.78961,-1.73071,0.353189032694364,-0.891606598239094,-0.283364043521635
13.2864,-3.29253,-1.63139,-0.0519907268130852,0.174837241253246,0.98322373008202
12.5375,-3.86796,-1.53927,0.286268636110668,-0.910203539593135,-0.299298821400065
12.1431,-4.3159,-1.49062,0.806743938617936,-0.570158947571815,-0.155186958237541
12.3205,-4.87386,-1.51209,0.125263474737327,0.684172375796364,-0.718482583013596
12.3597,-5.39993,-1.51646,0.922660795858988,0.125520313333446,0.3646117204994
12.3324,-5.91333,-1.51251,0.751185688607964,-0.379890303452197,0.539817949473316
13.1568,-6.77074,-1.61295,-0.047307055649666,0.0604164393872828,0.997051601642323
13.8879,-7.64916,-1.7017,-0.155758671927634,-0.0944058258632715,0.983273500183146
13.7682,-7.96678,-1.68625,0.265035311223049,0.339912191718325,0.902339174438385
13.8324,-8.39885,-1.6932,0.316272650558394,0.151079502538807,-0.936561046820438
13.9457,-8.73878,-1.70638,0.419727214943512,0.252653821623358,-0.871776984930708
13.982,-7.44632,-1.7137,-0.140522043862197,-0.0241252395955575,0.989783576345479
13.3497,-6.63396,-1.63696,0.0290436193843474,0.250664738761878,0.967638184919599
12.4585,-5.75944,-1.52824,0.72546544676119,-0.501324850053668,0.471564714831649
12.4221,-5.22013,-1.52431,-0.746716243826889,0.509496493716452,-0.427584113474417
12.2478,-4.64672,-1.5033,0.967552761289124,0.155156741382162,-0.199419256155118
12.3899,-4.20804,-1.52101,-0.789617052100604,0.573201917366759,0.21896226377854
12.9233,-3.78853,-1.5867,0.55614777612289,0.745553949586914,0.367217863629913
13.5884,-3.3103,-1.66847,0.141408944556745,0.86331385496854,0.484450924468832
14.0448,-2.72194,-1.72456,-0.339067256891543,0.063845454078413,-0.938593177738665
14.353,-2.07981,-1.76239,-0.325945365900584,-0.00319228300211855,-0.945383217418824
14.2808,-1.4377,-1.7535,0.426205879044259,0.335254649955834,0.840210014431571
14.1435,-0.803773,-1.73661,0.349839881847253,0.31571031954271,0.882008532386927
14.0779,-0.185869,-1.72856,0.662834733226391,0.446514080286337,0.60106180425539
13.986,0.424813,-1.71727,0.57021774650184,0.268939301721029,0.776223790903221
14.008,1.14916,-1.71999,0.731259563151538,0.170789241542469,0.660371475968466
14.0052,1.87861,-1.71967,0.859420868417541,0.0693858415711725,0.506538622335848
14.0236,2.56445,-1.72195,0.943089954748933,-0.0628256187799358,0.326549045131928
14.1053,3.27882,-1.73196,0.878506324032029,-0.0572725884472264,0.474285240386296
14.1183,4.03111,-1.73344,0.298821557569977,0.0936822928983332,0.949699586568702
14.1146,4.68322,-1.73278,0.300853616392736,0.123082838209672,0.945694303906745
13.9088,6.79008,-1.70569,0.334748032725212,0.020414996846939,0.942086504780924
13.9785,7.31856,-1.71348,0.394435933905603,0.108032074614492,0.912551020435846
14.0186,7.85028,-1.71746,-0.027949333079504,0.161903275366986,0.98641074822097
14.0765,8.27801,-1.72371,0.220001595678675,0.0234901749134777,0.975216647510373
13.8286,7.36459,-1.69489,0.394435933905603,0.108032074614492,0.912551020435846
13.9502,6.93234,-1.71059,-0.284867937317756,-0.0210833684640797,-0.958334883984996
13.9459,6.44709,-1.7107,0.291266301473454,-0.0727651638567268,0.953870626738699
13.8639,5.82602,-1.70124,-0.0792399561291758,-0.101414507239935,0.991683481295281
14.0364,5.21255,-1.7229,0.152971419050547,-0.167675909898945,-0.973901706638418
14.0995,4.56828,-1.73098,0.921667278519578,0.00150300794346269,-0.387978309539899
14.1101,3.92153,-1.73245,-0.195070214069228,-0.121425029301196,-0.973243840896098
14.0938,3.21736,-1.73055,0.878506324032028,-0.0572725884472266,0.474285240386297
14.0091,2.5045,-1.72017,0.943089954748933,-0.0628256187799358,0.326549045131927
14.0001,1.82151,-1.71905,0.859420868417542,0.0693858415711723,0.506538622335848
14.0158,1.2057,-1.72095,0.731259563151539,0.170789241542469,0.660371475968465
13.9801,0.590963,-1.71654,0.19812868125403,-0.0101623149647613,-0.980123335616031
14.0295,-0.0185221,-1.72261,0.353765061532271,0.0812318401315983,-0.931800230407732
14.1493,-0.691711,-1.73732,0.303592637334064,0.0045752835836603,0.952790941044612
14.2422,-1.31995,-1.74875,0.165639400437646,-0.0450973889281492,-0.985154716039324
14.3319,-1.96098,-1.7598,0.310205482285414,-0.121768388758657,-0.942838808205939
14.1772,-2.68937,-1.74081,-0.393897954904333,0.00962421595158737,-0.919103789345633
13.8063,-3.3055,-1.69523,0.0261438234173336,0.750452485507706,0.660407122533085
12.3802,-3.91511,-1.51993,-0.413138357095302,0.869632537018488,0.270288639153375
12.1129,-4.40144,-1.48686,0.914457706599412,0.130544838117395,0.383047187800468
12.3323,-4.97926,-1.51347,0.970597204634709,0.105026897815751,0.21658812776902
12.4353,-5.53754,-1.52563,-0.399681886465415,-0.914981280429033,0.0553502131512905
12.5476,-6.12555,-1.53875,0.499830499795144,-0.157279104436844,0.851723402744154
13.9455,-7.30128,-1.70943,0.304165893534138,0.205677839562598,-0.930150383284037
13.9587,-8.20874,-1.70929,0.519658342681715,-0.452621258738379,-0.724630390626407
12.1983,-4.52997,-1.49729,0.840593758129317,0.531310060687187,-0.10541230102132
12.4306,-4.12448,-1.52604,0.896373734881478,-0.288408544856599,-0.336652103317845
12.9135,-3.68712,-1.58552,0.848535838156302,0.488086440334299,0.204349108454564
13.7949,-3.24507,-1.69384,0.323646896366728,-0.662354774976705,-0.675676578355165
14.0535,-2.60828,-1.72562,-0.272782168513267,-0.275420752332155,-0.921809794765704
14.3364,-2.01947,-1.76035,0.310205482285414,-0.121768388758656,-0.942838808205939
14.2102,-1.26024,-1.74482,-0.244666212773528,0.249198762510645,0.937037043606186
14.1047,-0.577578,-1.73185,0.016669100873189,-0.0586654434898587,0.998138520855807
14.0419,0.0370765,-1.72413,0.0953761989815982,0.145480646528988,-0.984753147826058
13.9653,0.645757,-1.71473,0.374136458750026,0.259542252025161,-0.890314399326271
13.9986,1.2601,-1.71884,-0.291336392182354,-0.465471941113072,0.835738582707893
