43.12,17.01,0.902445,0.635947029787061,0.052355641405642,-0.769954714329368
38.497,21.3727,0.803906,0.439072286022837,0.710080639736248,-0.550455277673347
35.9761,18.7568,0.751737,-0.625264152121425,-0.236814875694232,0.743615125398751
23.3698,-13.7879,0.487651,0.854166776138336,0.162056017308722,0.494102181532804
17.3801,-3.68339,0.364034,0.95077988480515,-0.144799663784102,0.273953769855275
37.5373,21.2711,0.783682,0.0962649147579696,-0.895524127577831,-0.434476239986268
35.4489,18.0897,0.740857,-0.744609397072117,0.50517494157176,0.436297059581963
43.0921,16.5653,0.901935,0.238399794681963,0.962747181839059,0.12760643305315
17.3655,-3.7517,0.363726,0.392486734333708,-0.672387374006547,0.627574204894243
23.6887,-13.8368,0.49437,0.233880936639225,-0.498481741285602,0.834754850888351
33.7395,16.8475,0.705255,0.279663936657493,-0.803747687471343,-0.525145444060693
17.5027,-3.99801,0.366591,0.981104584994314,0.0971460456255629,-0.167321364811699
43.6595,-18.3347,0.913523,-0.621187511559707,0.273564685082485,0.734362606998735
23.7761,-13.6107,0.496323,-0.216603722928065,0.446608939791134,-0.86811478625372
42.2189,-19.9416,0.882842,-0.226718515733489,0.467359123092608,0.854502290626369
43.4041,-18.9005,0.908033,-0.674540957528341,0.27030164265501,0.686972720415266
23.6888,-14.3979,0.494097,0.462159261515685,-0.792555204756419,-0.397825419510604
33.7945,15.9624,0.706678,0.736372084664225,-0.189996696843146,-0.649351528924016
17.3963,-3.5441,0.364377,0.938485398813668,0.116433219615158,0.325097618544952
17.499,-4.06963,0.366511,0.813351993134754,0.54170952739327,-0.212154008199429
39.1232,-2.94557,0.819515,0.502645909207786,0.377921005303745,0.777510645397788
33.5779,16.0399,0.702099,-0.530245321460407,-0.806468980687962,0.261625079565145
35.6173,19.1676,0.744016,0.730371489018614,0.678377520878232,0.0797585556278195
42.6935,16.6265,0.893556,-0.130956624118684,0.390705990915981,0.911152671763519
39.5456,-2.82103,0.828362,0.486910123788014,-0.0578747006632392,-0.871532587099233
17.5923,-4.1643,0.368461,-0.735440442760836,-0.298551490185093,0.608271619311641
43.671,-18.5644,0.913716,-0.73872483438125,0.187177823607471,0.647495236598669
18.6758,-9.63344,0.390276,0.811802818593957,0.577303159379266,0.0877339494929159
17.558,-3.86561,0.367755,0.797993427756896,-0.461435835140765,-0.387664106288865
39.3671,-2.4973,0.824624,-0.0336243808980977,-0.227776473180786,0.973132714111771
35.9601,18.9488,0.75133,0.876164404045813,-0.469555941022186,0.108872197248953
43.3625,16.4522,0.90763,-0.719827585878975,-0.248879650842629,0.648002442899791
17.4571,-4.3504,0.365621,0.862151039478187,0.327694088339452,0.386409329072239
18.5474,-9.36294,0.387662,-0.579142977103788,0.702926583329965,-0.412901477981641
17.4067,-3.61756,0.364593,0.95077988480515,-0.144799663784102,0.273953769855275
36.1798,18.6624,0.756064,-0.769886892512351,0.635109153181978,0.0625342808557515
18.3267,-8.07585,0.383381,0.143328346562274,-0.974637807329285,-0.171866604074465
33.7214,17.0229,0.704816,-0.335615592164157,0.899336693415609,0.280277873141244
18.2228,-8.12534,0.381185,-0.33686185236906,0.941347801213764,0.0197081092065858
46.7939,21.357,0.978712,0.882081574025468,-0.468618057134385,-0.0482619238359403
37.732,13.4177,0.789906,0.051358698476539,0.985087650223265,-0.164209029801659
42.2942,-19.7516,0.88448,-0.345125309446827,0.761614950501495,0.548480799984683
37.7962,13.2734,0.791273,0.60797888100663,0.0829269103342068,-0.789610541844743
43.056,-19.6509,0.900531,-0.172549118622156,0.17326989809972,0.969641348167058
42.4595,-19.6033,0.887996,-0.345125309446827,0.761614950501495,0.548480799984682
17.3649,-4.25497,0.363693,0.0685750898121893,0.772977285577559,0.630716713777588
17.3982,-4.48133,0.364379,0.99888107158608,0.020314050448608,0.0427076595169469
17.32,-4.53389,0.362738,0.99888107158608,0.020314050448608,0.0427076595169469
46.3405,15.4596,0.970248,0.929591074492276,0.367123124215378,-0.032879262318908
39.5013,-2.3499,0.827434,-0.0336243808980977,-0.227776473180786,0.973132714111771
38.9744,-3.08853,0.816397,0.308957469022681,-0.948943365268915,0.0636535297309254
38.5886,-3.2107,0.808315,0.523322027015046,-0.769942557854566,-0.365133555901443
38.501,-3.3559,0.806481,0.498016792283115,-0.835381061330535,-0.232632235458257
63.1324,38.3658,0.877782,-0.583128534713952,-0.753081661456634,0.304678721245962
71.3548,19.5113,0.99615,-0.61363272124892,0.456042027971928,-0.644577809217705
59.0513,-2.34874,0.824566,-0.106233785765296,-0.744229452958384,0.659421643647854
61.6896,-12.0618,0.861356,0.784464900558154,-0.332495320909088,0.523509007912804
65.9852,-22.653,0.920907,0.830772925009001,-0.453729424632149,0.322406507835944
23.7759,-14.3069,0.330625,0.587119007630323,0.809370638981873,0.014506537604092
63.4301,-25.3393,0.884889,-0.27669217462042,-0.491572454638347,-0.82571058025476
17.3452,-4.39445,0.242161,0.0677628431954839,0.18839825703787,0.979752159388872
37.5789,21.509,0.522919,0.141646301271574,-0.989917236906364,0.000435214605389237
66.8619,-27.0495,0.932723,0.933435913328997,-0.287299363790971,0.21484057175721
18.5866,-9.48347,0.25894,0.0786090435915101,-0.362664911360058,0.928598287923163
67.5225,-25.9533,0.942098,-0.714129808698827,0.615231425435159,0.333929497775801
17.5045,-3.70927,0.244405,0.548248634394109,-0.439831355010703,0.711316957505192
56.3022,22.7775,0.785415,-0.685433366227749,-0.221748381958461,0.693547947556982
38.1684,21.4059,0.531251,0.577669595280188,0.800793085087576,0.158203266605806
63.2887,38.0832,0.880084,-0.583128534713952,-0.753081661456634,0.304678721245962
36.1246,18.8316,0.503179,0.810243460568729,0.584839314620123,-0.0383211518652021
56.2619,22.4757,0.784889,-0.685433366227755,-0.221748381958453,0.693547947556978
61.6419,-12.5565,0.86068,0.823229309458446,-0.489266360520926,0.287944321894315
64.3159,-26.3471,0.897165,-0.0917863863572961,-0.358368769316926,-0.929057094293855
63.6174,-23.8165,0.887681,0.825983060317733,-0.0608466482305658,0.560401346775022
69.3725,39.3053,0.965453,-0.0292190314808549,-0.998716688176176,0.0413669549004053
43.1091,16.5696,0.601474,0.21563091407834,0.973517639599346,-0.0759388851818122
17.4043,-3.7596,0.243005,-0.649271130264763,0.429839090949314,-0.627443507653545
62.2177,14.1529,0.868688,-0.215301715144148,-0.778511017616973,-0.589547086249243
63.9309,37.7128,0.889264,0.44821806822637,-0.213447082169952,-0.868067339800638
17.517,-4.00077,0.244574,0.941606409022993,0.205983698997763,-0.26636081963011
43.3179,-18.8603,0.604098,-0.708782564570268,0.261005639464938,0.655365037462858
63.7283,37.219,0.886565,0.920752337356534,0.000339188350517828,-0.390147431368889
58.0732,20.906,0.810402,0.0852742573460077,-0.0152788549123596,0.996240361372021
65.2076,-23.2493,0.909981,-0.272201282747834,0.706931865392432,-0.652804564447285
38.3053,21.2632,0.533218,0.666462392841312,0.631753451150637,0.395873030007719
63.4194,-24.0587,0.884884,0.825983060317733,-0.0608466482305657,0.560401346775021
67.1925,-35.7771,0.935738,-0.748898349334176,0.470284853860919,0.466886944124121
66.8865,-26.3818,0.933149,0.933435913328997,-0.287299363790972,0.21484057175721
17.435,-4.34434,0.243418,0.825034888462238,-0.435137358621758,-0.360517561225222
46.7543,21.3359,0.651863,0.354275485144563,0.906524798401895,-0.229568444059691
38.4416,21.1197,0.535175,0.314393996390361,0.887756480511408,0.336221424575675
43.044,16.9777,0.600517,-0.394357841352037,-0.434520524690714,0.809736874908552
69.7464,17.3142,0.973762,0.600777270420979,0.429120096233396,-0.674479513665284
17.426,-3.83606,0.243306,0.8583198657305,-0.0507327160286615,-0.51060082218572
18.6278,-9.40218,0.259537,0.34698411197367,-0.689409674983759,0.635858731226231
65.1502,-24.0664,0.909102,-0.612859650775481,0.510500371334701,0.60315206981199
51.8658,16.6235,0.723941,0.880307007446354,0.164047605431619,-0.445138131137962
42.7919,16.6626,0.597024,0.758105303524899,0.427743561677535,-0.492251758971807
69.9959,17.0843,0.977256,0.121167854905811,0.785573527410387,-0.606788747398571
39.15,-2.6378,0.546672,-0.694032147338805,-0.596693608207735,0.402835098252772
17.4444,-4.20126,0.243553,0.940640408765352,-0.07132317623801,-0.331826198376609
43.2122,-19.0393,0.60259,-0.711510895934095,0.320397438789001,0.625378066600125
65.5694,-23.0882,0.915056,0.463251139497588,-0.482646347614535,0.74327039823239
60.6947,20.2457,0.847118,-0.455261725494182,-0.278542949199906,-0.845665765389068
35.9647,18.9484,0.500903,0.035239189776686,-0.924253274292645,0.380150081498358
42.9136,-19.5833,0.598314,0.345003238021428,-0.57194566618524,-0.744211610153089
66.3103,-22.4735,0.925468,0.583834301706431,-0.729922072212765,0.355459247520144
36.1621,18.6507,0.503749,-0.566455102151934,0.738769530007914,0.365168726451112
58.2141,21.5042,0.812315,0.0897888555390273,0.111065046490813,0.989748714002188
60.6648,-7.45767,0.847088,0.769888524517936,-0.629430505325597,-0.10530384029635
18.2365,-8.13031,0.254291,0.506482797839248,-0.785799811165548,0.354956099067358
66.6113,-22.284,0.929692,-0.0374547855294539,-0.0149213576066011,-0.999186915510866
65.2503,19.5075,0.910847,0.209549701798708,-0.0869245908688368,-0.97392660810677
60.3501,-7.65995,0.842692,0.769888524517936,-0.629430505325597,-0.10530384029635
42.0195,-18.9539,0.585887,0.700420110860113,0.525610953893782,0.482850694780048
42.4534,-19.5978,0.591859,0.606984565876404,-0.788484011024964,-0.0993111330406572
66.6063,-21.7015,0.929664,0.590289067882865,0.414618000621949,0.692568213173428
51.7882,16.8234,0.722842,0.298729179892899,0.89897895168602,0.320308790865971
33.618,15.8768,0.468616,0.981621361172099,-0.18286107071102,0.0546015760675007
33.6835,16.0882,0.469495,0.997606347588153,-0.0594312674125289,-0.0353482631195029
0.868799,-0.429034,0.0121068,0.810221798827561,-0.540769533005418,-0.226072883994817
65.5364,-23.8842,0.914521,0.754787231922677,-0.218148222966072,-0.618633645498891
62.2382,14.6733,0.868961,0.767562532196235,0.548583984725074,0.331516773137746
57.7676,21.0529,0.806113,0.0852742573460077,-0.0152788549123596,0.996240361372021
17.4351,-3.91001,0.243432,0.856526883307052,0.372172183080351,-0.357560574327642
63.4628,-24.7116,0.885421,0.846997186249093,-0.0490681008096154,0.529327958801589
18.6227,-9.60466,0.259419,0.956692371423797,0.291083866300009,0.00314471610025259
0.874891,-0.281254,0.0122116,0.810221798827561,-0.540769533005418,-0.226072883994817
68.8906,17.3896,0.961805,0.347669548794151,0.651466657539516,-0.674327130520167
58.308,20.7319,0.813701,0.0852742573460077,-0.0152788549123596,0.996240361372021
17.4403,-4.05547,0.243501,0.92374415228246,-0.0927703752046491,-0.371605164937663
67.2035,-21.313,0.938039,0.903417691599963,0.379089987512249,-0.200317887049952
64.7878,22.1786,0.904201,0.724224858779928,0.688841031270473,0.0315656072874319
58.9044,-2.57489,0.822514,-0.106233785765296,-0.744229452958384,0.659421643647855
17.4486,-4.12976,0.243614,0.887550792376386,-0.269596507777437,-0.373592443641812
66.8934,-20.9255,0.933728,0.902049448609583,0.358062948886251,-0.241034679865844
64.9336,21.9437,0.906259,0.762771695542739,0.636901283653091,-0.111964705867073
59.4802,-2.8344,0.830554,-0.466422574382534,-0.438556585182777,0.768191449899822
17.452,-4.27576,0.243657,0.98409723890348,0.0691247072595355,-0.163628845955812
66.999,-20.6697,0.93522,0.902049448609583,0.358062948886251,-0.241034679865844
60.6789,19.9757,0.846917,-0.455261725494182,-0.278542949199906,-0.845665765389068
60.7061,-7.22057,0.847665,0.769888524517936,-0.629430505325598,-0.105303840296349
60.4758,17.0488,0.844251,0.996628944076341,0.0221039331529782,0.0790073665454387
59.8551,-3.32419,0.835789,0.776400514401608,-0.368812711868031,-0.511057163927351
66.5205,-21.9632,0.928446,0.582204292212207,-0.0556353433327834,-0.811136776815062
60.3723,17.2761,0.842794,0.996628944076341,0.0221039331529782,0.0790073665454387
52.3407,16.323,0.730598,-0.615462142958553,-0.746558726188927,-0.252698276480138
59.8291,-3.55875,0.835426,0.776400514401608,-0.368812711868031,-0.511057163927351
65.6991,19.9234,0.917095,0.96880262830056,0.247362576858937,0.0152716393237011
39.2639,-2.8006,0.548262,0.766925016124579,0.634385288622417,0.0968572414523948
38.8547,-3.07867,0.542548,0.28770187383221,-0.916745221689872,-0.277138648156877
67.2527,-35.806,0.468262,-0.748898349334176,0.470284853860919,0.466886944124121
114.119,-47.3284,0.795862,0.181951911075879,-0.228992884018374,-0.956271802953942
106.312,-29.1678,0.742047,0.992961705587745,-0.0740093967159328,-0.0924643738637754
60.6857,-7.21762,0.42367,0.769888524517936,-0.629430505325597,-0.10530384029635
120.168,4.67411,0.838942,0.646280090394635,-0.749084847181073,0.145581374094391
109.915,21.3898,0.767321,-0.137112980520246,0.0328458505988579,0.99001069725094
33.5621,16.0288,0.233888,0.951899337849762,-0.139493242312231,-0.272817312409617
143.221,19.7685,0.999871,0.551193016841714,0.111859275421854,0.826845669207396
59.7098,-3.31587,0.41686,-0.756243646598635,0.402539280238771,0.515807788661679
18.2819,-8.24579,0.127447,0.510946904703483,-0.841774879076087,0.174207673569132
18.6436,-9.51176,0.12986,0.0878521574268017,0.984206744844614,-0.153685008500586
64.8738,-24.2849,0.452582,-0.685238196233966,0.636605672716857,0.353810446265708
102.546,-17.9637,0.715892,0.895726022110514,0.025923129818733,0.443850070017429
118.862,4.15539,0.829826,0.450388732494196,-0.681108549737199,0.577270415937939
35.9835,19.158,0.250543,0.0822238715042355,-0.258772492512671,-0.962432351946689
55.9338,22.06,0.390152,0.496683011913753,0.598696955957832,-0.628385184901035
106.988,21.257,0.746881,0.976256692334709,-0.213772109266187,-0.0349907983844056
99.7033,-1.21953,0.696072,-0.457267695982426,-0.464277828840205,0.758519842758479
17.598,-3.87364,0.122848,0.31648997560123,-0.85375340213291,0.413447969750021
65.1557,-23.5181,0.454592,-0.647137344791843,-0.170309613313114,0.743106918679204
82.9652,-15.8822,0.579185,-0.251590556530341,0.893299453119221,-0.372449028622245
120.873,2.32348,0.843868,0.942717429868145,-0.199137291673123,-0.267634426948201
100.547,23.2863,0.701882,0.0129480107991517,0.503201039747064,0.864072371166801
55.8949,22.3273,0.389863,0.496683011913753,0.598696955957832,-0.628385184901035
88.4938,18.3069,0.617768,0.975046925027265,0.122991842195574,-0.184814774161091
98.773,-0.431463,0.689577,0.960998213190651,-0.0845489036803286,0.263313344004496
62.312,-13.4594,0.434989,0.913220919239799,0.110489083043318,-0.392198566023723
66.0656,-22.9695,0.460979,-0.694025187540963,0.484897592530446,-0.532168548316141
100.321,23.6498,0.700299,0.0129480107991515,0.503201039747063,0.864072371166802
63.5773,37.8762,0.442086,-0.397249089981835,-0.914665689505449,0.0746983062065451
33.7647,17.2264,0.235185,0.952170995137386,-0.292127518525367,-0.0896209179784013
43.0306,16.5382,0.300174,-0.229601079667773,-0.960571139515504,0.156800606329443
140.453,-2.82261,0.980564,0.929482773555824,0.124891344440321,-0.347079134703978
17.4087,-3.97573,0.121525,0.942536244003518,-0.0205491215245718,0.333471381597145
18.2949,-8.15568,0.127546,0.510946904703483,-0.841774879076086,0.174207673569132
92.2536,24.0583,0.643945,0.762507596066953,-0.639693220728568,-0.0968232890068633
37.6319,21.3197,0.261845,-0.176297389223148,0.98320724770979,-0.0471459288172713
47.0951,21.7387,0.328268,-0.0497010645362164,0.887675635675167,-0.45777917166758
51.6732,16.7847,0.3606,0.777318810709334,0.41590657294841,0.472013971292943
109.293,19.0472,0.762993,-0.152496626353731,-0.0239177248128168,0.988014535009738
120.794,1.84693,0.843315,0.942717429868145,-0.199137291673123,-0.267634426948201
86.167,-14.7456,0.601548,0.682279470164209,0.479037749213453,0.552283948183319
102.479,-14.6471,0.715439,0.678021445477089,0.686223297825402,0.263409386686938
69.6668,16.7128,0.48631,0.250651619953854,-0.948984929050327,-0.191314844823537
38.0624,21.3445,0.264872,0.719192303920054,0.496908399231852,-0.485638211794545
51.6317,16.5472,0.360318,0.179386790379668,0.976890093664137,-0.116215852353088
88.2117,15.0162,0.615823,0.152416651996516,0.652896437367033,0.741953776368588
67.4183,-25.5737,0.470316,0.979648389579043,0.19757957874655,-0.0353743248348621
67.4526,-35.5352,0.469701,-0.748898349334176,0.470284853860919,0.466886944124121
47.0224,21.9548,0.327738,-0.0497010645362128,0.887675635675166,-0.457779171667581
38.2536,21.2326,0.266234,0.566557751110783,0.823591261303584,0.0266411141032791
60.4867,16.7941,0.422186,0.950554925513795,-0.0625992940648763,-0.304181955355743
140.304,-5.02773,0.979523,0.974547547000858,0.0391923187362202,-0.22072843221182
61.9157,-12.3581,0.432233,-0.655182264880943,0.68905544186599,-0.309739887357668
66.9844,-26.757,0.467212,0.933435913328997,-0.287299363790971,0.21484057175721
18.6352,-9.61029,0.129789,0.972672989796294,0.226795403941824,0.0497101566241947
67.0077,-26.4275,0.467395,0.878043976252913,-0.362979845692529,0.311904484397068
136.478,10.6932,0.952812,0.638696128629277,0.185223500078249,0.746832986880425
60.4128,17.2864,0.421658,0.85915731284395,-0.497574265746133,-0.119451085612306
33.756,15.9407,0.235257,0.960556558559044,-0.155799744623188,0.230342217981323
83.1678,22.7398,0.580504,0.0555451499812729,0.993987609358712,-0.0943576639966828
81.9283,-17.3597,0.571931,0.822629570576447,-0.487618324787631,0.292419149414869
65.1657,-23.7472,0.45465,0.745597312518674,-0.421997333095392,-0.515754688224265
82.0448,-17.0476,0.572748,0.822629570576447,-0.487618324787631,0.292419149414869
59.7349,-3.08175,0.417035,-0.756243646598635,0.40253928023877,0.515807788661679
59.0478,-2.81359,0.412238,0.561619736755367,-0.663582724562546,-0.494207688071503
17.3443,-4.03283,0.121074,0.690145078956038,-0.0918439887125218,0.717819233324197
62.3563,-12.7011,0.435306,0.852301522700967,0.326374016517825,-0.408732327744743
59.0709,-2.58198,0.4124,0.561619736755367,-0.663582724562546,-0.494207688071503
73.9066,38.9353,0.514643,0.450365149125762,0.892520051548991,-0.0240663673186573
91.7011,23.1458,0.640103,0.762507596066953,-0.639693220728568,-0.0968232890068633
122.578,-7.29062,0.855766,-0.672150763056346,0.244614636140908,-0.698839775276438
17.3633,-3.8936,0.121208,0.60930704190712,0.125913295615815,0.782873406541287
42.3031,-19.3031,0.294886,0.822044831536905,0.557291374654394,0.116912867894328
112.273,-54.2235,0.782349,0.90947300501483,0.00553173982117123,-0.415726175509608
61.9639,-12.1146,0.432571,-0.630985194809356,0.650681875070886,-0.422458023223177
60.4081,17.0284,0.421632,0.950554925513795,-0.0625992940648759,-0.304181955355743
42.8416,16.6806,0.298843,-0.184436057561185,0.447026640456676,-0.875300247568402
102.489,23.3119,0.715445,0.0129480107991508,0.503201039747062,0.864072371166802
17.3728,-4.1837,0.121271,0.377914714847967,-0.905079005459436,-0.194967849087836
42.4226,-19.5819,0.295698,0.863597832581253,-0.159974032931079,-0.478128740350054
66.4571,-22.5215,0.463735,-0.280252775317391,-0.910352457501935,-0.304494310368992
79.4385,-14.5605,0.554569,0.276848617428472,0.0468965770941088,0.959768489837419
79.5566,-2.2247,0.555419,0.842262789900283,-0.505680273524869,-0.186764166041574
33.7728,17.045,0.235261,0.952170995137386,-0.292127518525366,-0.089620917978401
60.4342,22.9245,0.421594,0.880705336008693,-0.395628216095903,-0.260454268067523
79.0519,17.6543,0.551841,0.828141368679357,0.552255620659968,-0.0958937064220323
17.3926,-4.26088,0.121408,0.0186529083010274,-0.990799632204936,-0.134045357377556
63.5723,-24.7523,0.443451,0.846997186249093,-0.0490681008096153,0.529327958801589
17.3891,-4.11537,0.121386,0.938384711542767,0.0591856716056676,-0.3404866949227
38.596,-3.05795,0.269455,0.481210809355521,-0.874558086288386,-0.0598691127961724
69.3393,17.2119,0.484015,-0.585099232225623,-0.53407359825558,0.610265745471039
60.4051,22.6121,0.421407,0.88056762917481,-0.149090573531326,-0.449858479228251
104.21,-10.3213,0.727531,0.615019171432837,-0.683622522718286,0.392952497386584
66.1673,-22.7137,0.4617,0.567868746509752,-0.722176491879401,0.394950884685937
86.1345,-15.4381,0.601317,0.682279470164208,0.479037749213453,0.55228394818332
140.413,-2.2696,0.980285,0.929482773555824,0.124891344440321,-0.347079134703978
74.4464,22.2551,0.519582,0.921010295098613,-0.344864106090329,-0.18113195370471
60.3392,22.2874,0.420963,0.866732934035289,-0.0773603781886717,-0.49273663649569
113.271,24.363,0.790729,0.302551852307488,-0.886401541774802,0.350363644524603
18.7038,-9.74933,0.130255,0.958488954497329,-0.26478708024346,-0.105767321242251
66.2289,-21.8652,0.462164,0.774613009252078,-0.0640264814542393,-0.6291862169263
98.7114,-0.0431218,0.689147,0.960998213190651,-0.0845489036803286,0.263313344004496
63.1895,19.9777,0.440985,-0.0107227233689923,0.055439039110669,0.998404495255324
60.436,22.0236,0.421652,0.927836751730696,0.372985010229305,-0.0010697112111993
110.311,23.2729,0.770066,-0.110098879296908,0.152751304377234,0.982112659417757
66.8844,-21.7903,0.466749,0.755231054831204,-0.259385319536412,0.601951252035861
84.5709,-13.4478,0.59041,0.140714809012761,-0.0541824418356318,0.988566439609008
140.606,0.491359,0.981628,0.737578119272901,-0.392485170866582,0.549485130480963
61.4664,20.2333,0.428932,0.174249993178972,0.169041450383902,0.97008346441388
106.04,-29.5419,0.74014,0.992961705587745,-0.0740093967159328,-0.0924643738637754
67.0528,-21.554,0.467934,0.830556547623073,-0.0487907070048149,-0.55479301375415
140.615,1.04422,0.981694,0.737578119272901,-0.392485170866582,0.549485130480963
90.4633,15.0338,0.631544,0.153264982931425,0.573190471972383,0.804961196485337
115.741,21.5804,0.807996,0.0269265438987833,-0.600700911069941,0.79902026048994
118.94,3.69001,0.830369,0.450388732494196,-0.681108549737198,0.577270415937939
125.733,-15.9575,0.877786,-0.798151857772578,-0.341278926044446,0.496469844574807
64.5776,-24.8194,0.450481,-0.473986078505271,0.515293322914586,0.714009795971203
125.135,-18.3876,0.873607,-0.63656795471438,0.667296377748368,0.386648138848046
74.7049,22.6527,0.521378,0.921010295098613,-0.344864106090329,-0.18113195370471
114.485,20.8809,0.799235,0.0269265438987833,-0.600700911069941,0.79902026048994
98.6081,-0.818423,0.688426,0.960998213190651,-0.0845489036803287,0.263313344004496
102.536,-14.2441,0.715836,0.678021445477089,0.686223297825402,0.263409386686938
64.7807,22.1745,0.452028,0.921751747273466,0.386209575512622,0.0348694734785624
117.678,20.9855,0.821524,0.0735839471420123,-0.573878852981488,0.815627650845441
79.727,-1.91582,0.556609,0.836529558812337,-0.52118819659978,-0.169059637283138
106.296,-30.9687,0.741892,0.990794889258981,0.134391208516106,0.0162631636486858
66.9465,-21.2298,0.467202,0.900009552938536,0.250603323456176,-0.356624142329282
142.275,21.9231,0.99326,0.438367884065967,0.0864930486166834,0.894624251158283
122.822,-7.78985,0.857474,-0.672150763056346,0.244614636140908,-0.698839775276438
67.0294,-20.9664,0.46779,0.979619096922828,0.123320789653026,-0.15855096273267
101.332,-13.2656,0.707433,-0.675008294267086,0.704210058324344,-0.220118141972584
122.716,-8.26761,0.856732,0.864392275196123,-0.440066929741849,0.243242866141746
109.592,-33.3362,0.764859,0.372712131576621,-0.841513021424582,0.391077360311848
60.4337,-7.42871,0.42191,0.769888524517936,-0.629430505325597,-0.10530384029635
39.1048,-2.78904,0.273007,-0.613738388303864,0.760185468370902,-0.213174211385637
38.6459,-3.21484,0.269803,0.785384833465177,-0.442381401191785,0.43297731954742
38.8942,-2.92775,0.271537,0.612328862089297,-0.714759226251389,0.337894381635656
90.4532,-48.1569,0,0.810606532186554,0.478384415642438,-0.337735696731825
111.157,-46.0985,0,0.181951911075879,-0.228992884018374,-0.956271802953943
106.086,-29.105,0,0.929122946482331,-0.311638172110992,0.19902813872242
102.774,-12.223,0,0.47419316239552,-0.769790589462254,0.427274259829319
120.508,4.68722,0,0.875199530935982,-0.47268220976856,-0.102943234929488
106.779,20.779,0,0.9630770332402,-0.202156640003833,-0.177806976656192
33.5178,16.0072,0,0.08087702870557,-0.996712967474232,0.00470815212882475
90.0134,55.2347,0,0.835533599999715,-0.544996760884919,0.069729003265949
154.967,21.3893,0,0.183547232575772,-0.365953398048215,0.912353288957046
99.0186,-1.98988,0,0.942022472663851,0.163816299003816,0.292844465846593
17.397,-3.97295,0,0.889558745984517,-0.453040982515373,-0.0586438880358394
111.267,-47.2877,0,0.181951911075879,-0.228992884018374,-0.956271802953943
143.303,-85.37,0,0.833631844523987,-0.438868458799273,-0.335339266514802
18.6329,-9.50605,0,0.00758732152447635,0.999912409640966,0.0108446114767986
67.6107,-25.9844,0,0.903379204290574,-0.428110233190069,-0.0250527741632357
61.9785,-12.3703,0,0.506651023825799,-0.680297469365989,0.529622595090599
79.0538,17.6543,0,0.881929094840034,0.463840053393937,-0.0839849780743481
37.9046,21.4736,0,0.342910550292954,0.916891161749937,-0.204261969055999
73.5944,39.1813,0,0.400169045062583,0.914506731123839,0.0595161667355251
79.147,17.3488,0,0.881929094840034,0.463840053393937,-0.0839849780743481
62.0273,-12.6338,0,-0.615611142025189,-0.748779599365584,0.245666508479192
183.138,-91.4251,0,0.109552871734374,0.241970853303112,0.96407897728688
108.827,-40.7373,0,0.963865259797218,0.176898194791866,-0.199175273654691
82.3037,-17.1009,0,0.847806084550676,-0.463413686220579,0.257822804310067
115.936,24.9356,0,0.237504115341291,-0.953878322098609,0.183597227174852
37.998,21.3078,0,0.421710987503329,0.467268135014956,0.777058770633607
62.1216,-13.1625,0,0.954083478420396,0.0515387897048179,-0.295073667684869
82.3403,-16.0979,0,-0.67588826687325,0.670841324179216,-0.305199882825256
160.302,2.45095,0,-0.412026636580064,-0.795391835798344,-0.444506330994127
37.5285,21.4776,0,0.0207420537832998,0.977053468291669,0.211981808898952
63.5361,37.8505,0,0.708560355731533,0.705631620562523,0.00512233812933155
42.9734,16.5157,0,0.519489369428876,0.837011185220705,-0.171880978778397
125.22,25.3911,0,-0.042962638652738,-0.0183792313066626,0.998907611111543
98.8978,-0.820807,0,0.929964285574859,0.201688302397065,0.307389421144309
120.854,2.79837,0,-0.772999056817688,0.418357401640584,0.47691670410199
63.7869,37.6234,0,0.708560355731533,0.705631620562523,0.00512233812933156
60.4066,22.612,0,0.950712097942059,-0.224021747264313,-0.214384616004166
79.6166,-1.91312,0,0.907730123191732,-0.310034597266262,-0.282673967581506
17.3447,-4.03283,0,-0.692203814851897,0.713551196777993,0.108159919938838
110.899,-47.7041,0,0.181951911075879,-0.228992884018374,-0.956271802953942
33.7456,15.9353,0,0.295697358428386,0.946784657380617,-0.127129401662811
38.2436,21.2265,0,-0.403237733607814,-0.884799050087896,0.233516532944437
195.565,60.14,0,0.213795273567664,0.162739547939803,-0.963227605779899
144.069,22.1989,0,0.386841301177576,-0.000586037439570919,0.922146118716204
140.609,-0.614195,0,0.756483799723898,-0.473147669637281,0.451512506440413
155.82,9.74576,0,-0.157256210374692,-0.084480555685899,-0.983937762264256
46.759,21.3357,0,0.7753523311213,-0.63038102604426,0.038059488017467
92.2317,24.052,0,0.762507596066953,-0.639693220728568,-0.0968232890068632
146.309,15.5239,0,0.21130449031067,0.118511116592131,0.970209012336329
62.2037,-13.4356,0,0.905436220675523,-0.104190472614655,-0.411496774841749
18.6467,-9.61598,0,0.973635931646941,-0.222610507417035,-0.0497758434737558
54.2058,16.4364,0,0.927236151650648,0.0659658308992107,-0.36862125308489
73.1145,39.3367,0,-0.357267596522061,-0.933771438115538,-0.0207548990599519
55.8306,22.0187,0,0.562148011416764,0.690000835122442,-0.455947870694131
98.6434,24.4853,0,0.0129480107991511,0.503201039747063,0.864072371166802
17.2923,-4.09235,0,0.719573903449951,0.580144758421694,0.381635240445159
182.782,-92.2467,0,0.109552871734375,0.241970853303114,0.964078977286879
64.8168,-23.9407,0,0.786384628060656,-0.551115335284713,-0.279053944541053
79.3712,-2.21946,0,0.876856192979781,-0.401170865350496,-0.264924807496276
56.7787,16.0049,0,0.854501640522926,0.443941120873528,-0.269709524379812
112.7,59.3704,0,0.729515299533962,0.645987662917981,0.22473844153513
42.7379,16.6398,0,0.534162091068133,0.831779420751389,-0.151042562478941
69.7358,17.0191,0,-0.530127060120083,-0.841369187965641,-0.105181698362764
100.582,-7.17355,0,0.883356004047859,0.390316334839322,-0.259490517881094
17.3732,-4.1837,0,0.714479746688847,0.640559514725305,-0.281428853649236
18.2269,-8.12514,0,-0.134675074594372,-0.96929795341517,-0.205728223120126
133.59,-48.6807,0,0.117522007838098,-0.138696785509325,0.983337062945907
169.93,-30.4561,0,-0.0734163112572966,-0.0616089633700758,-0.995396594767049
98.9757,-1.59978,0,0.953391362465643,0.110643330847347,0.28071865508888
60.459,22.9333,0,0.996916669683975,-0.07765843262041,-0.0112392859717467
38.5846,-3.20966,0,0.124271308904969,-0.749635207694061,-0.650079762158866
17.4658,-4.27871,0,-0.706523309376866,0.338714678774097,-0.621367185881361
18.2709,-8.24063,0,0.478515412852922,-0.837653016086282,-0.263363673090561
112.242,-54.207,0,0.909473005014831,0.00553173982117118,-0.415726175509608
139.575,-1.70718,0,0.955784168416334,-0.02396846420668,-0.293090661960201
144.164,21.0546,0,0.398974351281221,0.118125725794759,0.909321604233172
74.4601,22.2587,0,0.921010295098613,-0.344864106090329,-0.18113195370471
47.0169,21.702,0,0.900604833148034,-0.387719869229765,-0.196428708479324
60.3407,22.2874,0,0.995730898096027,0.0430966764992147,0.0816250883711645
88.4103,18.2892,0,-0.203205767249174,0.979136019986136,-0.00026556050894858
158.83,8.05482,0,-0.315108864278463,-0.927506173600736,0.20109376316947
165.423,-17.6981,0,-0.185479270887524,-0.532576428002617,-0.825808566440798
42.4633,-19.3756,0,0.9192704606439,0.244755959868342,0.308279646257223
112.158,-52.963,0,0.90947300501483,0.00553173982117129,-0.415726175509608
158.006,3.03719,0,-0.327199828827424,-0.803988590835413,-0.496530580953269
117.594,20.9701,0,0.0735839471420123,-0.573878852981488,0.815627650845441
60.4492,22.0279,0,0.886197114340168,0.459956377375303,0.0556309756066516
107.027,21.2643,0,0.967497552909034,-0.209368266604978,-0.141821768617715
85.8205,-28.7072,0,0.319742465149558,-0.729832929579167,-0.604242212098737
191.136,-31.935,0,0.0177276721115984,-0.139759943530088,-0.990026710662885
120.792,3.2721,0,0.770486974364546,-0.331762652517021,-0.544319175419568
128.952,23.5189,0,0.10050511062282,-0.114085673027471,0.988374009142573
136.72,66.7669,0,0.268049145744382,-0.880339373533236,0.391346704180343
120.088,4.19816,0,0.842888547160832,0.460659291005309,-0.278086164121102
106.151,-29.5721,0,0.965344536086458,-0.0106106697657471,0.26076299648367
18.6156,-9.70311,0,0.939939229286534,-0.334223815476164,-0.069344692780285
121.053,3.75547,0,0.44724089497266,0.200700514331583,-0.871604775922604
128.155,30.743,0,0.0755866699808643,-0.0723260608631008,-0.994512743126618
117.75,20.5206,0,0.0735839471420122,-0.573878852981489,0.815627650845441
79.3993,-2.53267,0,0.888571281588645,-0.447114719772652,-0.10261337582662
148.244,-37.5541,0,0.989159801336046,0.117798655407531,0.0876719122924315
25.8901,-13.9293,0,0.224705870552248,0.0319866646715036,0.973901496570649
85.8298,-27.9619,0,0.958770483026829,0.0219819167536109,0.28333011878785
146.909,-23.3597,0,-0.66576279088313,0.709491861466993,-0.23104372916746
179.761,8.40791,0,0.964294875845793,0.264243073616914,-0.0176349216905945
98.5221,24.8668,0,0.0129480107991511,0.503201039747063,0.864072371166802
143.726,24.4658,0,0.58662245957553,0.149534356718603,0.795935654486158
108.213,-34.7839,0,0.96528453088848,0.238149199559428,0.107288084970374
146.666,-22.7303,0,-0.66576279088313,0.709491861466992,-0.23104372916746
158.723,8.67508,0,-0.315108864278463,-0.927506173600736,0.20109376316947
91.781,23.5495,0,0.762507596066953,-0.639693220728568,-0.0968232890068633
64.9005,22.2149,0,0.855533111113744,0.517182125308855,0.0242021703376464
160.831,-6.39636,0,-0.118240072052027,0.375050898870902,0.919432492691693
107.694,-34.1506,0,0.96528453088848,0.238149199559428,0.107288084970374
156.505,9.17111,0,0.0994902410503548,0.148510066191606,0.983893516685371
64.9755,21.9556,0,0.855533111113745,0.517182125308856,0.0242021703376464
144.296,23.3969,0,0.306491346558138,0.0308856195254426,0.9513722368198
59.3095,-2.59234,0,0.803224991685969,0.558601346944058,-0.206867464632212
175.781,-54.9821,0,-0.0854725070814283,-0.398233965445186,0.913293030357189
137.907,9.16982,0,0.963740969252891,0.153528442440937,0.218248394141078
83.0855,22.7167,0,0.0555451499812729,0.993987609358712,-0.0943576639966828
51.3893,16.6921,0,-0.460166333999393,0.0281507616526822,0.887386319295003
144.634,22.8685,0,0,0,1
59.4361,-2.83202,0,0.886291848036265,0.452925460530137,-0.096671026207579
201.174,-58.6091,0,0.0434380885500539,-0.00829596547767571,0.999021676151179
154.447,-55.0613,0,0.103066737744167,-0.0195788029212304,0.994481733390286
157.557,11.0987,0,0.819822844783401,-0.0894450058133639,0.565588272603225
56.8171,15.7749,0,0.854501640522926,0.443941120873528,-0.269709524379812
144.908,21.7454,0,-0.432927798879017,-0.0903885526802463,-0.896885405446058
123.631,-6.86545,0,0.83754548639167,-0.415152134155632,-0.355198907277267
86.4784,-28.5497,0,0.705710517836743,0.287380085320694,-0.647599684663038
125.415,-17.4221,0,-0.51750169928076,0.82066563756486,0.242280627706362
156.046,12.8434,0,0.92104629204334,-0.388962983034749,0.0195326839406197
52.186,16.4984,0,-0.4209608764934,-0.902678710117956,-0.0892361292397392
123.566,-7.3492,0,0.828667561396598,-0.355942951251432,-0.431989222253793
172.785,-53.3001,0,-0.085472507081428,-0.398233965445187,0.913293030357189
126.238,-17.0308,0,-0.798151857772578,-0.341278926044445,0.496469844574807
159.168,13.7305,0,-0.281345867637969,0.478473690796741,-0.831809731836784
146.186,18.4232,0,0.11521828048659,0.0500179992433208,0.992080111479617
39.0446,-2.939,0,-0.477005066605961,0.876476028918967,-0.0652375441190097
101.421,-13.277,0,-0.675008294267087,0.704210058324344,-0.220118141972585
144.522,17.6365,0,0.117058137929659,0.154582263913317,0.98102075208829
38.7339,-3.0688,0,0.61652314126943,-0.74205672596597,-0.263155907644004
101.931,-12.9363,0,-0.601226149968196,0.71952880979978,-0.347570724403728
146.148,16.088,0,0.211304490310669,0.118511116592131,0.970209012336329
176.248,20.8053,0,0.963775953663359,0.266350978539069,-0.0138948685334886
218.253,-19.0196,0,0.485004139557629,-0.0168524815221759,-0.874349460157956
166.485,-17.15,0,0.287309750671104,0.549911996929404,0.784251173287247
145.636,16.6115,0,0.700348568852595,0.542306428361921,-0.464128882815387
165.221,-16.3637,0,0.283778819954899,0.566324184094581,0.773787115332513
89.739,54.5299,-0.623821,0.835533599999715,-0.544996760884919,0.069729003265949
73.5925,39.1814,-0.512404,0.355960077982757,0.934475786971734,-0.00688668614554575
58.034,15.8677,-0.405072,0.605349154124676,0.0679002835931062,-0.7930586063391
161.663,-6.42962,-1.12864,-0.118240072052027,0.375050898870902,0.919432492691693
173.984,-83.0923,-1.21246,0.109552871734373,0.241970853303112,0.96407897728688
142.454,-85.7121,-0.990412,0.833631844523986,-0.438868458799273,-0.335339266514805
18.5709,-9.68005,-0.129329,-0.273142968358697,-0.961971262087305,-0.00205176859274128
148.373,-37.5879,-1.03569,0.955653914084878,0.11885043395704,0.269444188733912
116.056,24.9619,-0.810165,0.237504115341291,-0.953878322098609,0.183597227174852
38.0079,21.314,-0.264493,-0.245264258154827,-0.94352360145082,0.22273000960139
89.6916,55.039,-0.623398,0.835533599999715,-0.544996760884919,0.069729003265949
164.982,3.82027,-1.15181,0.178062988571765,-0.700464466402269,-0.691117286289871
205.3,-79.9348,-1.43208,-0.0819166311787292,0.0514739023355078,-0.995309048946448
18.6436,-9.51176,-0.12986,0.47030855248988,0.869191059165488,-0.152698291154982
205.752,-79.0775,-1.43529,-0.0819166311787292,0.0514739023355078,-0.995309048946448
99.2037,-1.21342,-0.692584,0.943122538316311,-0.0288435864472323,0.331191674473648
106.829,21.2254,-0.74577,0.963684398430813,-0.235705567140915,-0.125519981834849
42.7335,16.8539,-0.298076,0.662300312197662,0.737635347765147,0.131348354349304
78.9178,17.6244,-0.550905,0.907822294817482,0.356933909401785,-0.220129201496482
82.7398,-16.5144,-0.577605,0.950729210264663,0.121364637546957,0.285279851203386
108.965,-40.7899,-0.760176,0.963865259797218,0.176898194791866,-0.199175273654691
62.1812,-13.1755,-0.434079,0.981517467384166,-0.12975866374437,-0.140663251786128
37.7406,21.3813,-0.262601,-0.302130528631972,-0.94928383895592,0.087047899260559
63.513,37.8379,-0.441638,0.587836213532747,0.808588751153747,0.0251558654612858
42.9024,16.4889,-0.299279,0.662300312197661,0.737635347765147,0.131348354349305
88.3225,18.2715,-0.616572,0.939691131050487,0.309904038581578,-0.144706824634789
155.636,-63.7515,-1.08545,0.12664251338286,-0.0316943197676215,0.991441951855246
41.1497,15.404,-0.287074,-0.421232615844654,-0.541766308915444,0.727359848955664
99.1232,-1.6022,-0.692022,0.955236243135265,0.072852836285862,0.286733646518733
17.494,-3.9952,-0.12212,0.303356720110974,-0.950928996185635,0.0608994628620915
112.191,-64.2087,-0.780534,0.416055382304805,-0.0312627788499036,-0.908801715179821
168.729,-57.1804,-1.17738,-0.0854725070814283,-0.398233965445186,0.913293030357189
103.594,-18.5673,-0.723201,0.917515889843986,0.331151801507275,-0.220234139593035
41.6823,15.0042,-0.29082,-0.0623698713222428,-0.912001784820363,-0.405416753027941
96.0348,17.1259,-0.670433,0.944776241765923,0.139744648845653,-0.296427539398187
17.2999,-4.16615,-0.120762,0.969537454698008,0.140088394472511,-0.200928757702382
149.521,-41.0225,-1.04364,0.824753834321012,0.422941704717978,-0.375368388630476
53.0871,15.4163,-0.370522,-0.124434016672294,-0.942726519026589,0.309488102871191
34.212,14.717,-0.238556,0.48185385483948,0.776289708654365,0.406437142512413
53.1593,15.2109,-0.371031,-0.124434016672294,-0.942726519026589,0.309488102871191
15.4578,2.07172,-0.107916,0.900921908967416,0.420878306053354,0.105835558467686
79.3399,-1.90652,-0.553906,0.82430065667581,-0.472631792722893,-0.311685123019008
91.0693,-47.9769,-0.634154,-0.66766295425018,-0.721646961070381,0.182898450238938
17.32,-4.02717,-0.120904,0.525111375040712,0.841532879154183,0.126808742227513
38.7697,-2.91838,-0.270667,0.743090042379867,-0.664478368094669,-0.0792823262154531
54.1044,15.9426,-0.377616,0.927236151650647,0.0659658308992107,-0.368621253084889
33.4832,15.9911,-0.233338,-0.102922930377049,-0.990037492344489,0.0960865971654591
42.7252,16.6353,-0.298031,0.662300312197662,0.737635347765147,0.131348354349304
69.7826,17.0309,-0.487114,0.8575879189812,0.46677388694096,0.216021063064513
17.3161,-4.09811,-0.120876,0.991332411062992,-0.0912519483942262,-0.0945152510989217
18.6574,-9.62174,-0.129944,0.935016502883007,-0.344262317106265,-0.0850152713167274
64.7801,-23.9277,-0.451945,0.812965549721242,-0.581440377078875,-0.0318449818466653
69.7151,17.3051,-0.486638,0.8575879189812,0.46677388694096,0.216021063064513
112.918,59.487,-0.786294,0.729515299533962,0.645987662917981,0.22473844153513
60.4342,22.9245,-0.421594,0.990734491471552,-0.135797245756288,-0.00206771700458264
79.0475,17.3274,-0.551814,0.907822294817482,0.356933909401785,-0.220129201496482
164.845,-15.6726,-1.15085,0.283778819954899,0.566324184094581,0.773787115332513
148.12,-36.9047,-1.03393,0.871212623207081,-0.463036516583924,0.163051370661101
133.81,-48.7621,-0.933572,0.117522007838098,-0.138696785509325,0.983337062945907
62.1102,-12.9055,-0.433586,-0.626613342841707,-0.749971704655396,-0.211891861073097
218.51,-11.273,-1.52551,-0.170954550503683,-0.206172737983698,-0.963466316886267
198.823,21.0963,-1.38806,0.121303343214144,-0.0556145763652207,0.9910562637009
61.3597,16.0017,-0.428301,0.169354192963359,0.766929647692163,-0.618981480188628
173.893,89.678,-1.21113,-0.00757498417961452,0.0645206718061848,0.997887620187943
60.3861,22.3047,-0.42129,0.936661471308661,0.350098092303486,-0.0098292385948359
134.056,27.1834,-0.935839,-0.644460995259785,-0.70192937130178,-0.30325761868856
215.559,-39.5104,-1.50484,0.0392615193716329,-0.117836678543709,0.992256544592384
209.076,-5.84654,-1.45965,-0.170954550503682,-0.206172737983697,-0.963466316886267
15.4906,2.01416,-0.108145,0.93115814396667,0.362445253001365,0.0397234125085353
54.3247,15.3136,-0.379171,-0.420867279262685,-0.823232732524145,0.380996852148224
40.602,14.7959,-0.283273,-0.237897945934354,0.88712888136067,-0.395483141456093
210.284,40.0645,-1.468,0.0246097727379315,-0.0386233221338996,0.998950748572285
120.035,4.19642,-0.838018,0.82156244873319,0.561965685558224,-0.0960713853683849
106.401,-29.6425,-0.742659,0.975244993937422,0.184234468164949,-0.122290075394434
18.2721,-8.14551,-0.127387,-0.277351301531798,0.862432700894598,0.423421884137164
106.311,-51.3443,-0.740808,0.969593323065616,-0.00763479067826033,-0.24460273473098
214.965,-37.657,-1.50071,0.321523698602102,-0.00238307435840358,-0.946898533209249
98.4083,-0.816764,-0.687031,0.782034072428951,0.158717264315276,-0.602686933298263
93.6903,14.0598,-0.654079,0.665847771175145,0.372771694071085,-0.646287869080385
52.1126,15.8021,-0.363702,-0.089687536280788,-0.633138343553996,0.768825067071557
128.012,63.2103,-0.891887,0.268049145744382,-0.880339373533236,0.391346704180343
42.1411,14.9825,-0.294029,-0.24384075831245,-0.93285697560147,-0.265178331801995
102.112,-13.3678,-0.71288,0.90922608388282,0.413881870594256,-0.0448299629769124
233.937,-40.0331,-1.63316,0.0099036040280873,-0.0437323609779563,0.99899419379221
96.6004,15.6637,-0.67439,0.703756726735964,0.210971002169683,-0.678393474185448
48.564,15.3537,-0.338917,0.0455239392015818,0.575481983147885,-0.816546421235038
42.8008,15.0277,-0.29864,0.743583001096844,0.134300897450608,0.655017243607962
210.777,38.4435,-1.47146,0.0246097727379315,-0.0386233221338996,0.998950748572285
160.307,1.82074,-1.11917,-0.0742126716559862,-0.801891635565329,-0.592842545855173
230.12,-33.8142,-1.60653,0.0099036040280873,-0.0437323609779563,0.99899419379221
138.261,22.977,-0.965227,0.912707953004342,0.318326202364873,0.256188644187406
46.7071,14.9689,-0.325951,-0.2123178527426,-0.953496291177971,-0.213929783145371
42.9539,14.8921,-0.299717,0.743583001096844,0.134300897450608,0.655017243607962
137.866,24.0269,-0.96247,0.927024596453951,0.308363460990428,0.213394876919278
149.016,-36.5063,-1.0402,0.871212623207081,-0.463036516583923,0.163051370661101
85.9781,-28.3853,-0.599979,0.972933303011521,0.122420088504697,0.195995178056996
222.853,-36.3352,-1.55579,0.0358690246313071,-0.0280229836054114,0.998963525591325
120.055,4.66974,-0.838158,0.862174525715674,-0.427477826719781,-0.27187827215481
46.4275,15.8922,-0.323963,0.267101422346976,-0.139983836796608,0.953447091146605
138.021,23.4952,-0.963555,0.927024596453951,0.308363460990429,0.213394876919279
148.26,-38.1803,-1.03489,0.992995028390186,0.100018394620104,0.0629062344286474
146.597,-23.3107,-1.02343,-0.66576279088313,0.709491861466992,-0.23104372916746
61.7379,15.5829,-0.43095,-0.670194488613024,-0.700809378264803,-0.244347217640855
45.9216,15.5176,-0.320441,0.0460254447253677,-0.171159848608223,0.984167650688765
96.6119,15.276,-0.674472,0.703756726735964,0.210971002169683,-0.678393474185447
59.1208,-2.58416,-0.412748,0.841557397112167,0.436217737587185,-0.318583164621285
60.3816,15.4933,-0.421478,0.433523436595912,0.900085247988146,0.0436345766129258
45.7571,15.2618,-0.3193,-0.151235254105394,-0.462016664036258,0.873881284882841
93.4367,14.3976,-0.652307,0.913717049356927,0.363839046444083,-0.180948340686314
189.745,-28.644,-1.32466,0.0177276721115984,-0.139759943530088,-0.990026710662885
58.1087,15.3981,-0.405603,-0.419260532897372,-0.722535928701064,0.549693039150672
46.3507,15.2576,-0.32345,0.58381432173709,0.7480930934434,0.315464041178935
93.9055,13.7149,-0.655583,0.796142110720512,0.40840419974416,-0.446501678797315
123.316,-6.84813,-0.860923,0.881132304448308,-0.413180115776534,-0.229974028934799
236.186,-82.1165,-1.64801,0.0289144732829609,-0.0187248009114709,0.999406491406572
230.226,-32.9058,-1.60728,0.00990360402808732,-0.0437323609779563,0.99899419379221
137.904,9.16982,-0.962764,0.832838474466406,-0.536325577276287,-0.136875675734322
57.0586,15.3602,-0.398269,-0.0731861803718533,-0.94979499548391,0.304192783537509
46.5172,15.11,-0.324619,0.58381432173709,0.7480930934434,0.315464041178935
93.9834,13.3491,-0.656128,-0.777468800161978,-0.172059550770081,0.604927909559059
123.089,-7.32102,-0.859336,0.931605498362474,-0.352429168082352,-0.0889093746777466
107.913,-34.6884,-0.75308,0.877436930121968,0.353852449013289,-0.32387169988351
215.593,-29.9499,-1.50513,0.350116373566358,-0.0714837343194763,-0.933974625291547
138.128,9.73033,-0.964331,0.9942939432087,0.054547761118941,-0.0916738580807263
54.5771,15.1533,-0.380938,0.386660177761447,0.911416490713966,-0.140761810829951
52.4519,16.3564,-0.366056,-0.213039394130918,-0.398236826787969,0.892200451881852
94.2208,13.0051,-0.657786,0.878208913401619,0.459618431100405,-0.132287573924194
112.747,-34.2959,-0.786878,0.178815028112976,-0.763708945346558,0.620301404575715
125.653,-16.9523,-0.877226,-0.530348040937568,0.80034729469096,0.279598217724192
52.665,15.7438,-0.367564,-0.443958410542164,-0.48268060761356,0.754930699298074
50.1756,15.4304,-0.350177,-0.0345343642022639,-0.997491047092946,-0.061797966459776
15.548,1.95949,-0.108546,0.397392744075154,-0.593377294380777,-0.699987423794004
38.6334,-3.06091,-0.269716,0.45731971637827,-0.586275403928563,-0.668685148451869
102.164,-12.9662,-0.713243,0.895751927280172,0.398602918434632,0.196835459684611
200.125,15.6799,-1.39716,0.0627926208656772,0.0291281069269014,0.997601443539289
15.5184,1.89381,-0.108339,0.872188553564706,0.202907379343448,-0.445101923651965
38.6459,-3.21484,-0.269803,0.771611941293192,0.482446425486635,-0.414560560821841
217.667,-25.0206,-1.51962,0.441269531706544,0.00441888511950261,-0.897363735528569
94.2903,10.7551,-0.658277,-0.806036456274719,-0.588151917912627,-0.0662008505367794
171.182,-18.3147,-1.19509,0.179566915784384,0.108044497345363,0.977794512844632
208.113,22.9097,-1.45291,0.03343593919179,0.0897993185677094,0.995398473152907
227.589,-23.445,-1.58889,-0.00375306304316788,-0.083684579260721,0.996485226037872
106.127,64.4941,-1.47558,0.0952511326405649,-0.221461844400008,-0.970505988237907
73.5098,39.1408,-1.02371,0.355960077982756,0.934475786971735,-0.00688668614554594
56.7045,15.5054,-0.791624,0.0568608404737818,-0.995348326719971,0.0777724457399185
211.247,24.9393,-2.94974,0.0450142422359262,-0.0281986216595906,0.998588281391498
168.597,-57.8801,-2.35299,-0.0854725070814283,-0.398233965445186,0.913293030357189
18.6138,-9.70324,-0.259271,0.703157797821981,-0.704804671911757,0.0939121175009005
200.132,-19.8232,-2.79454,0.0177276721115968,-0.139759943530087,-0.990026710662885
66.5768,15.9727,-0.929527,0.111183018611448,0.856764040221993,-0.503580892960538
37.3856,15.315,-0.521504,-0.125455359876202,-0.294249786326539,0.947458714628304
71.8559,15.4563,-1.00328,0.154683453023425,0.743373580521246,-0.650744764976079
29.209,0.102081,-0.40786,0.0475487392985012,0.973141306008189,-0.225244569150509
62.0078,-12.8852,-0.865785,0.800590887800491,-0.5373699510881,-0.265118400037406
18.8313,-9.60836,-0.26235,0.262947906176112,-0.805023403711537,0.531785406074942
104.002,-22.0384,-1.45212,0.870762747141197,0.16989474781185,-0.461419562716043
98.1921,-0.0428981,-1.37111,0.984067679515827,0.141618596796958,-0.107494070411328
74.1159,15.6378,-1.03484,0.0985547504487042,-0.929363384048173,0.355767707295819
37.4637,15.1562,-0.522618,-0.0389817896117216,-0.266433700474037,0.963064641304195
37.8961,21.2531,-0.52746,0.416343742897126,0.815910556482764,-0.401183064909771
37.4251,14.9507,-0.522104,-0.0389817896117215,-0.266433700474037,0.963064641304195
70.9406,15.5515,-0.990492,0.320741999383553,0.750394665856308,-0.577955374822175
29.1334,0.216362,-0.406805,-0.374229146409383,-0.921544808860283,0.103478071301936
103.756,-21.1352,-1.4487,0.919666368524973,0.298824215435483,-0.254789832751342
64.6,-24.1843,-0.901391,0.940695663319859,-0.339053582694964,0.0115903870910639
82.7337,-16.5145,-1.15518,0.0452040188426675,0.998182725692365,-0.0398477453544487
29.1073,0.33062,-0.406441,0.494552046853066,-0.862437310325217,0.107796839992863
69.5624,15.5363,-0.971242,0.233025292319969,-0.608005455420875,0.758965466485563
