32.7431,15.7180888888889,0.557813666666667,-0.0358746724049634,-0.875496007078456,-0.481891844161651
32.8229,15.852,0.114378,-0.637423762825239,-0.471782880609081,0.60918951086662
32.7940444444444,16.3783666666667,0.787181666666667,0.283128904143438,0.181186390126809,0.941811826041355
32.7484,16.89015,0.456215,-0.11851640897227,-0.869517155648316,-0.479472394239313
33.0063,-5.41506,-1.26794,0.299496349842872,0.111806114973756,-0.947523788136884
33.1767,-4.37532,-1.15855,-0.207414796105407,-0.170088256095454,0.963353044057556
33.8601,-3.3864,-1.41916,0.125854664097028,-0.0466108634501606,-0.990953092196323
33.4161,-2.746555,-1.810165,0.176006419994317,-0.984009326140217,0.0273383647985643
33.318925,-2.7701,-1.43991875,-0.397592534837358,0.916895726360985,0.0349628834990037
33.59528,-1.738214,-1.902284,-0.0489402993595138,0.248138157329669,0.96748762368086
33.60615,-0.9044895,-1.87888,-0.218470121394168,0.144711047551896,-0.965054153285944
33.3363,0.481660333333333,-1.94132,-0.135674723249871,-0.0926642460128842,0.986410516459519
33.2217666666667,1.35281166666667,-1.81845666666667,-0.0550725345840755,-0.0498950701116417,0.997234926139794
33.73145,2.149695,-1.885885,-0.490806168045935,0.87030756975038,-0.0409150271080441
33.559725,3.1709825,-1.876285,0.0194767563900526,-0.0932305185255424,0.995454030267587
33.412,5.26103666666667,-1.868,0.0558262631058332,-3.03139766695826e-05,0.998440497690624
33.459,6.0819,-1.8706,-0.0392806868601152,0.00841297630536872,0.999192798947972
33.39665,6.95762,-1.867065,-0.0558457988606726,6.61080849202164e-05,-0.998439403458885
32.965,7.89026,-1.84285,0.0558352079024365,-9.4801347587715e-05,0.99843999347542
33.5122,8.933685,-1.873325,-0.056185531551498,0.0757467729812975,0.995542873224049
32.9794,10.6185,-1.84319,-0.0423301692404678,0.0862085013753991,-0.995377441507834
33.0585,10.9,-1.84754,0.0461933653848815,-0.016387850555392,0.998798083372507
33.7737,12.1943,-1.88719,-0.0626681088986398,-0.295066271279654,0.953419426947128
33.7939,12.4647,-1.65176,0.0712145427545156,-0.159965021629883,0.984550496803093
33.7284,13.2489,-1.53036,0.133704138825203,-0.00866146374943772,0.990983441994228
33.4298333333333,14.3527583333333,-1.06860666666667,0.633245636416526,0.763893319918559,0.12436623232707
33.3819,14.5042875,-0.509376125,0.998497483303128,0.0494536699123147,-0.0236031855799872
33.3211333333333,15.5576,-0.350132666666667,-0.0869393462688312,-0.865261922278257,0.493723967339731
33.0998,15.6374,0.922989,0.405762514672986,-0.243391093089314,-0.880975344428574
33.1324,16.27575,0.808719,0.427620809640885,0.738908560323661,-0.520725054748174
32.9823,16.91815,0.2297245,-0.320188622846348,-0.772678789268912,-0.548130216658129
32.9945,16.8349,0.459665,0.268621193056795,0.920791252201399,0.282818182778484
34.41635,-2.555745,-1.80369,0.260745295053063,-0.622151198050698,0.73820036431295
34.20628,-2.606996,-1.553924,0.0220219103379009,0.864718552758809,0.501773713918714
34.4430333333333,-1.94535666666667,-1.88506,-0.128983630212698,0.0889518818772507,0.98764912081551
34.34685,-0.689738,-1.92029,-0.046235404756667,-0.0609886108660681,0.997067037210445
33.9773,1.15982,-1.89962666666667,-0.00929640524819055,-0.142659331825176,0.989728190915392
34.4172,3.07985,-1.92422,-0.0131338179097207,0.00171344047576692,0.999912279626993
34.6485,6.06338,-1.85637,0.16443965691888,-0.027544227894987,0.986002492259563
34.86524,7.219504,-1.827112,-0.00489423844392597,-0.00327630111897231,-0.999982655990108
34.53175,8.05005,-1.869835,0.186045663923602,0.0454529941307294,-0.981489193144671
34.6071166666667,9.28068166666667,-1.83336666666667,0.0678398096663354,-0.0274750200319625,-0.997317844771003
34.52625,11.2487,-1.838925,-0.288453140638646,-0.109863896531141,-0.951170179250115
34.17675,11.93325,-1.790235,0.219092673118811,0.269154067592085,-0.93784566346723
34.3919333333333,13.3265666666667,-1.68076,0.00330063122678875,-0.100294035555036,0.994952366832498
34.6006,14.40528,-1.3263716,-0.24755748411894,-0.689036069937328,-0.681134778426431
34.3882666666667,14.4062333333333,-0.639363666666667,0.954169672595849,-0.297961703836312,-0.0279116274210799
34.1407,15.4,-0.47603,0.0490899855920729,-0.107767341671728,0.992963430033342
34.55465,17.73125,0.9028355,0.767124855761624,-0.606090087745087,0.210176738032211
34.8903,18.53435,0.78955225,0.94650584367116,-0.308691589661292,0.0940010125941729
34.8372333333333,19.0098,0.646518333333333,0.0840798955808334,0.995162052033913,-0.0508238266049248
35.2443,-5.35517,-1.23074,0.0036093401311292,-0.0885425980118895,0.996065851739293
35.2024,-2.4058,-1.84488,-0.129147497583432,0.477365933675617,0.869162061547756
35.5094,-2.61276333333333,-1.48845666666667,0.154276070659494,0.673928330750532,0.722509168823254
35.23835,-1.7826,-1.97013,-0.599965126592767,0.777636564018486,-0.187944729040345
35.72635,2.4186675,-1.87234,0.0523393586539713,2.47108764950705e-06,0.998629356432898
35.85855,3.279355,-1.87927,-0.0523346814202846,-3.63054698745285e-07,-0.998629601564316
35.4763333333333,5.25155333333333,-1.85922,-0.0972732248189526,-0.0767232534930251,0.992296055674296
35.1247666666667,6.33488,-1.84076,0.0829055857894371,-0.00729598998409278,-0.996530698159902
34.9541,7.78492,-1.83173,0.200729837153775,0.0378021514820883,-0.97891701886296
35.8911,11.0039,-2.00605,0.0451871940082366,-0.174271592724983,0.983660271367488
35.6045,12.2899,-1.74051,0.00457955546852172,-0.0296578661392103,0.999549617901873
35.5274,13.52625,-1.61213,-0.0575991941889653,-0.268347789826392,0.961598563083407
35.2574,14.7136,-1.72263,-0.0623664288941259,0.971463312501634,0.228843748025472
35.7295571428571,14.6494857142857,-1.21066071428571,-0.715122838566986,-0.416600611076028,-0.561287142745117
35.0162,14.703,-0.488404,0.229595536221242,0.92312568357438,-0.308423186665035
35.2448,18.7647,0.2454,0.821876169772089,0.481968325309799,-0.303687495558886
35.2204125,18.48465625,0.666662375,0.744609567499475,-0.389162683566301,0.542318170180311
35.09135,18.88,0.1833335,-0.211656875906186,-0.954993637105203,0.207818478413755
35.05575,18.9628,0.6098905,-0.527248248302279,-0.841992595798148,-0.114270526748038
36.1422,-2.46959,-1.76765,-0.0990547106629077,0.616684438676916,0.780953562889129
36.553375,-2.6788375,-1.4676025,-0.642428773422716,-0.760486294844756,-0.0945825905327137
36.1624,-2.04266,-1.89519,-0.0990547106629077,0.616684438676916,0.780953562889129
36.570475,-0.62492375,-1.9483025,-0.115954978369723,-0.032712327905637,0.992715642364051
36.4344833333333,1.31534116666667,-1.90945166666667,0.0523168407468119,6.97657925420939e-06,0.998630536347452
36.1296,3.591025,-1.893475,-0.0523346814202846,-3.63054698745285e-07,-0.998629601564316
36.648,11.5128,-1.7918,0.0863918580314686,0.0630768910817293,-0.994262416405918
36.53235,12.4666,-1.65815,0.698360376398986,0.699585841559175,0.151236354643345
36.5533,12.9043,-1.78681,0.135739806743127,-0.0196265873211373,0.99055010066905
36.50845,13.17435,-1.65687,0.0126701955846431,-0.0473532873429867,0.998797843570789
36.8073,13.00865,0.899036,0.143538043835494,0.60242267853731,0.785164789299554
36.3857272727273,14.4704545454545,-1.11947345454545,0.130563306318497,-0.987340783385794,-0.090063313875899
36.60542,14.62308,-0.5613412,-0.0805376575406364,0.320418978044575,0.943846049007325
36.3307,14.8479,-0.760259,0.271492203018223,0.0940801597920595,-0.95783135636385
36.54428,14.97016,-0.4842046,-0.375634047447671,-0.0971786084795415,0.921659036982799
36.8293714285714,21.1698571428571,-0.0185374285714286,-0.0702486584470902,-0.959051707915097,-0.274381026187159
36.5433666666667,21.0618333333333,0.805332666666667,0.222945563321242,-0.963409588793858,-0.148785886479277
37.5814,-4.355785,-1.312365,0.916521510933691,0.116976689588297,-0.382498070699433
37.7876,-4.19436,0.923504,-0.171115414784057,-0.212194371611815,-0.962129442164383
37.5510545454545,-3.42866454545455,-1.07265490909091,0.392595870565214,-0.356817275656513,-0.847673235514845
37.6724153846154,-3.36343538461538,-0.252898692307692,0.880472994625597,-0.420506613828912,-0.218955459993982
37.6588666666667,-3.58160583333333,0.690485416666667,0.483514273704952,-0.748752913710971,-0.453412639141108
37.65655,-2.349825,-1.841715,-0.668957840600364,0.241270937817108,0.703053157353091
37.8538666666667,-2.98362666666667,-1.10166866666667,0.283244253577429,-0.731084740942609,-0.620715550293565
37.89175,-3.152185,-0.330774,0.272438966156393,-0.233426102533064,0.93342876770317
37.9224,-3.00467,0.397137,0.952783637968876,-0.198697148084325,-0.229614421502547
37.4509166666667,-1.67303,-1.94069666666667,0.0746528596571959,-0.124730819765805,-0.9893781749895
37.1768,-0.853863,-1.948355,0.0523425742004144,-2.52912367012734e-06,0.998629187896928
37.6534,0.691945,-2.10515,0.00188307673603348,-0.251903914000143,0.967750418307021
37.4105,2.90272,-2.09157,-0.00339646125072437,0.00946069395288725,0.999949478384234
37.8188,5.80054,-1.84962,-0.0488620683298662,2.72418757552573e-05,-0.998805535395358
37.5971666666667,7.29141166666667,-1.83873166666667,-0.0488499218947798,5.41518925149537e-05,-0.998806128434566
37.7880666666667,8.20755666666667,-1.84801666666667,-0.0680368201295181,0.0196347946276212,-0.997489581873713
37.637,8.53509,-1.70894,-0.077597423133735,0.029411441771752,-0.996550855208058
37.5806,9.385775,-1.83776,-0.274893668159008,0.0155922425943015,-0.961348195596666
37.6455666666667,10.15252,-1.84085,-0.314670374247248,0.0752572685970246,-0.946212924818939
37.5135,10.639,-1.7031,-0.210490612737298,0.0996644188418335,-0.97250229077694
37.2895,12.2902,-1.82303,-0.0367080183559033,-0.126913984836043,0.991234261837947
37.2839,12.2862,-1.69236,-0.0367080183559031,-0.126913984836042,0.991234261837947
37.8238,13.6512,-1.84883,-0.0414869084089031,0.2260545316774,-0.973230797467272
37.6064,13.566,-1.44383,0.503549252637026,-0.075943643388866,0.860622282536025
37.1795,13.0563333333333,0.778361333333333,-0.16363063808635,-0.797075850712244,-0.581287452548915
37.3491625,14.4375125,-1.222045375,-0.996711252352422,0.0749873664888867,0.0307176545512206
37.4955,14.60036,-0.5488006,-0.151454023743174,-0.579836582105165,0.800531833685958
37.4823,15.7377,-0.39209,-0.0043814801762675,-0.0938106084853272,0.99558041983914
37.8074,18.6745,0.922131,-0.698176308605842,0.0213699375791588,0.715606852866421
37.6236,20.6752,0.916773,-0.313980641984423,-0.939386672769833,0.137727395537244
37.1937,20.9906,-0.776546,0.548897167980214,0.825352115670708,0.132309425745811
37.1467769230769,21.0946076923077,-0.178001769230769,0.816962692571203,-0.47629944349626,0.325131971777558
37.4810363636364,21.0604272727273,0.628652,0.746759763586099,0.495455680510954,-0.443704320621582
38.5492,-4.00754,-1.34617,0.102811438287825,-0.353383456670181,0.92981177703287
37.9735,-3.30927,0.265109,-0.652504975594748,0.733266762832085,0.191199140557303
38.068,-3.408924,0.744263,0.45148804278771,-0.84529773188343,-0.285710153289048
37.98415,-2.44433,-1.525605,-0.683550144711249,0.227928964041246,0.693402903813011
38.07104,-3.10673,0.0797762,0.913459488809635,-0.0394229832335,0.405015543771608
38.2626,-2.94056666666667,0.6770458,0.828333862080849,-0.424956606068822,0.365068344133936
38.5993666666667,-1.67259666666667,-1.93343,-0.0399716017735399,0.198539718524199,0.979277412799861
38.78955,1.40035,-1.897125,0.983066550060817,-0.176829485684243,-0.0480779694264404
38.51265,2.45358,-1.883585,0.570918079473337,-0.820532023393769,-0.0279239165556102
38.7046,3.46225,-1.89297,0.0488559237870744,-1.441401015434e-06,0.998805836340995
38.2481333333333,6.17481,-1.87061333333333,0.0488556692588797,-4.20193520894401e-05,0.998805847908211
38.8987,9.14525,-1.90228,-0.0311147450999922,0.033090914647708,0.998967899386732
38.56945,11.3788,-1.818155,0.00798139863680119,-0.0300523038472903,0.999516461249774
38.2003,12.2926,-1.73403,0.0181777371638191,0.0841812441362855,0.996284642061329
38.1132,12.8581,-1.86323,-0.137061097187438,0.0853237015325925,-0.986881006806065
38.919,13.7348,-1.63031,0.766002916900419,0.608487661899417,0.207321722490021
38.35502,14.35069,-1.2718191,0.560656383311922,0.822381423548528,-0.0967120160781013
38.2384,14.50602,-0.5328812,-0.29606701559413,-0.538830879264417,0.788673320094144
38.3106,15.4981,-0.400812,0.0287152730732525,-0.0627778879242557,0.997614339251445
39.7413,-2.40097,-1.80464,0.0255199349010603,0.519111886235911,0.854325220563715
39.9386,-2.88528,-1.39469,-0.184754675847916,0.666471367861674,0.722275311479578
39.7401333333333,-1.66911333333333,-1.89718333333333,0.00943000137500524,0.102193992120887,0.994719791221861
39.71545,-0.9117395,-1.94241,0.0237532546981081,0.116095980841843,-0.992953929507113
39.2839,0.953089,-1.921305,0.0488555587465383,-2.16734187654527e-06,0.998805854195332
39.2716,2.500855,-1.920705,-0.974847355568384,-0.217713203006937,0.0476822249668393
39.06585,3.030145,-1.910645,-0.0427637005011418,-0.99908302518926,0.00209157790331255
39.399,6.91814,-1.92688,0.977004133108384,0.210523170951456,0.0338070759114098
39.7312,9.33938,-1.804,0.00760203271874304,-0.0158884373253105,0.999844871296494
39.7972,10.5196,-1.80688,-0.0453873208913423,0.000110623849986058,-0.998969458424365
39.2836,11.14055,-1.78346,-0.00101969580517355,-0.0169564667532397,0.999855708817883
39.6501,11.3487,0.968784,0.367582906027929,0.919078025449945,-0.142050661142753
39.2734,12.3354,-1.7828,-0.0981340475128313,0.145393874445141,-0.984494961892939
39.4673666666667,13.3084,-1.60748666666667,-0.0294084516118508,-0.0928149806154142,0.995248975054561
39.444775,14.379275,-1.10202275,0.11919056257396,-0.836628452250311,0.534646091053281
39.4810666666667,14.6491,-0.597219333333333,0.00430265306464795,-0.832673919047124,0.553746902217348
39.26305,15.191,-0.479151,-0.206974328426981,0.775678720096929,0.596224916085356
40.82605,-20.2731,0.7111465,0.388863342504076,-0.920897547818998,0.027074107141572
40.731,-19.2373,0.709738,0.250529224968112,-0.651201160221194,0.71636035370716
40.6122,-19.0392,0.943390666666667,0.250529224968113,-0.651201160221194,0.71636035370716
40.3858,-2.28044,-1.83391,0.52623617277786,-0.580017542305396,-0.621816002590893
40.3093,-2.4737775,-1.5842,0.393407509819143,-0.654843381915295,-0.645298904678785
40.4317,-1.80516,-1.88286333333333,0.185295125217369,-0.172956649597346,0.967342604215663
39.967,-0.786626,-1.90808333333333,-0.000446724220423502,0.0775585841714819,-0.996987696242429
40.4641666666667,6.25965666666667,-1.83744,-0.0239533648124372,0.0198988306507969,0.999515018823076
40.34575,7.33054,-1.83203,0.992627150421576,0.115921856266237,0.0354042862621454
40.2496333333333,8.29845666666667,-1.82762,0.0453724298063565,-5.58394131847358e-05,0.998970139441329
40.326875,9.1454275,-1.86655,0.522663858321803,0.842695622610153,-0.129176541360469
40.1943666666667,10.5118,-1.82492333333333,0.00757741448777569,0.0891490128249917,-0.995989475999626
40.7844,11.5686,-1.99426,0.566999149605115,-0.110806072194011,0.816231571744203
40.5332,12.4223,-1.98181,0.0503872695114348,-0.187874282000215,0.980899779403628
40.4444,12.3891,-1.55323,0.0503872695114348,-0.187874282000215,0.980899779403628
40.1429,12.9156,-1.68185,0.0344019060439175,-0.221023206467207,0.974661608489582
40.5833833333333,14.5822166666667,-1.27469683333333,-0.0948962408946698,0.900319476082627,-0.424758218814379
40.571475,14.695725,-0.60105125,-0.716616333224023,0.206832765139319,0.666094016052824
40.3456,14.9691,-0.422217333333333,0.318130020350548,0.4719876520006,-0.822204929753356
40.99155,-20.24495,0.785252,0.388863342504076,-0.920897547818998,0.0270741071415722
41.248,-19.2775,-1.72605,-0.422222146142494,-0.906352734071428,0.0159116544731729
41.3336,-19.3082666666667,-1.22443316666667,-0.829168272756931,0.0805825228220402,-0.553160403923602
41.5409,-19.37336,-0.2166104,0.956880157157432,0.281771112221525,-0.0706074015653744
41.35098,-19.59625,0.6194174,-0.00264358612081346,-0.8929942426901,0.450060322595491
41.5325,-19.1739,-0.723806,0.529788725853758,0.672375027589457,-0.516948477347916
41.49605,-19.15535,-0.5061805,-0.0450464310578803,0.964292904380137,-0.260978952429249
41.5643333333333,-3.38611,-1.35470333333333,-0.232335720977451,0.0532815180102157,0.971175160615435
41.491125,-2.71121625,-1.41248875,0.059791715634585,0.357667003878108,0.931933079721033
41.568,1.58207,-1.88759,-0.0453591514174547,8.16675654900789e-07,-0.998970744007061
41.5667,1.90976,-1.88754,-0.0453591514174548,8.16675654796706e-07,-0.998970744007061
41.5673666666667,3.44282333333333,-1.88756333333333,-0.0453592370965257,8.79160724848866e-07,-0.99897074011667
41.8952,6.0876,-1.90243,-0.000902429997946722,-0.00114145336137118,0.999998941351601
41.16955,7.98201,-1.869415,0.0453700976063293,-4.8222578681575e-05,0.998970245761992
41.7919,12.4847,-1.75111,-0.0259621334569589,-0.104645433606739,0.994170659822357
41.2562,12.956,-1.72856,-0.0569497024829126,-0.00524532952002718,0.998363269509318
41.1413,13.8749,-1.72355,0.533400942030186,-0.0168171955867792,0.845695345247865
41.62462,14.60278,-1.0171204,0.290635830535533,0.0787289520053848,0.953589306842865
41.36432,14.66948,-0.49066,-0.291895684142271,0.362257354029351,-0.885192927576113
41.2877,14.8963,-1.72945,0.070682902692689,-0.907704920463942,-0.413612988955237
41.2168,14.92825,-0.4322845,0.102856911105996,-0.823372667037838,0.558102057882544
41.88655,16.41415,-0.073033,0.993369620644865,0.103667160771637,0.0496982550742359
41.87325,16.4096,0.4381335,0.974340200518953,0.186636334159657,-0.12580958796583
42.06412,-19.28436,0.5278294,0.446519331283346,-0.777108346941499,0.443534783195325
42.58445,-18.709075,0.85361425,-0.346154236169997,0.195986361689602,0.917478387109603
42.4446,-2.22882,-1.77896,0.353920786316605,0.0464132604582491,0.934123057346659
42.59135,-1.81568,-1.859915,0.928072383979852,-0.272739467898953,-0.253564257623488
42.6474,-0.9792405,-1.936605,-0.207387139938321,-0.0894761825237882,-0.974158399311515
42.3821,1.11217,-1.92456,-0.0192485637955415,-0.017603539236639,0.999659746212757
41.9695,2.75669,-1.90582,-0.0453592370965257,8.79160724882259e-07,-0.99897074011667
42.8329,7.08593,-1.79519,0.0795138316918964,-0.0292747397015981,-0.996403803778908
42.764,8.37925,-1.94172,0.285055079687385,0.0795461603500002,-0.955204695297291
42.6222,9.4879,-1.78625,-0.779596316389093,-0.10708356314525,0.61705971670226
42.4648,10.6919,-2.0766,0.0839611210655688,0.00495157852682017,-0.99645672862373
42.6536,10.9145,-1.78745,0.0839611210655689,0.00495157852681996,-0.99645672862373
42.645,12.4153,-1.78691,-0.0313193949124417,-0.0967742173324744,0.994813473150623
42.2044,12.6061,-1.62087,-0.0313193949124417,-0.0967742173324744,0.994813473150623
42.35245,13.46105,-1.626425,0.869808323162895,-0.0182299067986764,-0.493052889104874
42.1444875,14.3675125,-1.122215375,0.797203945477752,0.497210864403257,0.342413822200668
42.2908333333333,14.5077333333333,-0.540959166666667,-0.548975213617469,-0.543531243699119,0.634980316196134
42.03245,14.82675,-1.246985,0.453180903669745,-0.571287714451039,-0.684293369737265
42.5465,15.03325,-0.370682,-0.22394179908362,-0.323223999901502,0.919443481955724
41.9685333333333,16.4109333333333,-0.0487826666666667,0.772965905548823,0.532795974021363,-0.344459226797185
42.1115125,16.47775,0.642671625,0.586797833933668,0.806978772371538,0.066735021034545
42.2915,16.897,0.885067,-0.11966545017362,0.185826988299045,0.975268429948623
42.9975,-1.41058,-1.95251,-0.207387139938321,-0.089476182523788,-0.974158399311515
43.6393,6.86697,-1.829,0.0795138316918965,-0.0292747397015979,-0.996403803778908
43.0463,8.16961,-1.8041,0.0805422632861348,-0.040002533558578,-0.995948161870708
42.9493,8.85368,-1.8,0.0314362299703281,0.10670574915353,-0.993793563343432
43.43955,11.3894,-1.82036,0.909375025985012,0.413514796651243,0.0451948566237436
43.0825,12.5408,-1.65464,0.0903718815376886,-0.060077842946505,0.994094349553518
43.1154,14.51044,-0.9926744,-0.307892131325302,0.942873115752436,0.1272506308796
43.7977,14.51365,-0.6112935,-0.172636599426798,-0.983895276388502,-0.0463323821829213
43.382,20.491,0.907164,0.201241335862037,-0.947940164144076,-0.246802289176912
44.0543,-17.6014,0.921959,-0.340747185534374,0.347694054107773,0.873498826724172
44.8394,-0.941105,-1.87933,0.130794612163598,-0.181093433115062,0.974729674274655
44.5147,0.9053865,-2.021125,0.0565414760335017,0.0396723156069436,-0.997611732520391
43.9543,2.01915,-1.84223,0.0175154550351482,0.062185389833281,-0.997910910916498
44.5221,3.363605,-1.86603,0.0418765088928096,5.06025844958929e-08,0.999122794256516
43.9625,8.88234,-1.84247,0.0314362299703281,0.10670574915353,-0.993793563343432
44.1956,12.5321,-1.85193,0.0283692596954807,-0.00691439970593675,0.999573597180836
44.89,13.753,-1.88087,0.0812694427566679,-0.469755615955951,0.879047745547343
44.1400714285714,14.5071,-1.10034814285714,0.0902600170831436,-0.995558711136244,0.0267578399145071
45.4519333333333,-1.60979333333333,-2.01129666666667,-0.0190808754042842,-0.136658628010389,0.990434419628137
45.267,-0.7719,-1.89725,0.130794612163598,-0.181093433115062,0.974729674274655
45.28695,1.45404,-1.898085,-0.072201504936139,-0.1070580825282,0.991627707181653
45.4079,3.88055,-1.90315,0.0418765088928095,5.06025846069152e-08,0.999122794256516
45.6644,7.00163,-1.91388,0.0064876485824288,0.00805752003034146,0.999946491961861
45.6795,8.48328,-1.91447,-0.00822691663782175,-0.0216633816384716,0.999731471815617
45.4547,9.55674,-1.90499,-0.0036809449279372,-0.0372678350373424,0.99929853353043
45.5999,12.5845,-1.75141,-0.0454614256045894,-0.08123522594922,0.995657620292728
45.3406333333333,14.4505,-1.31614133333333,0.325832176072915,-0.220410458683561,0.919376213929037
45.8745,14.7021,-0.320141,0.725922716855173,0.671599744380133,0.148290230636227
45.4430875,15.0830875,-0.416325375,0.371341738017561,-0.364386367476009,0.854006960629558
45.6401,15.4261666666667,0.955559666666667,0.985577087986729,-0.169049484923009,0.00775082465701801
45.8285,21.1541666666667,-0.212928333333333,0.875089539012745,-0.46374881237683,-0.138402809688033
45.8252,21.03425,0.7986425,0.553040759223108,0.821422112385895,0.139325632679068
46.24915,-1.789685,-1.938415,-0.0496486370782436,-0.113791370553833,0.992263340461469
46.3325,-0.425394,-1.94191,0.041875312791027,-6.5463442189273e-07,0.999122844388129
46.6584,3.0642,-1.95557,-0.000862403286567706,0.00525730162979934,0.999985808419372
46.5367,12.39585,-1.787445,0.0262847921287354,-0.117385781453387,0.992738479165247
46.1983666666667,14.5351666666667,-1.076187,0.60874962459431,0.533900498904972,0.586834007045697
46.181,14.700525,-0.52320575,-0.312228274186216,-0.816353470720204,0.48588117440561
46.4191333333333,14.9272333333333,-1.29674333333333,-0.156651995412267,-0.984785599968772,0.075216184611432
46.7628,19.8787,0.978404,0.753736566456028,0.596700145576009,0.275372701364256
46.0512333333333,21.2978833333333,-0.133482,-0.497974246748642,0.689229238636478,-0.526293365133652
46.059525,21.20215,0.60172475,0.944628684402446,-0.27811059205728,0.174158396839354
47.6033,-0.624391,-1.99517,-0.0296401518025189,0.0540186527239586,0.998099918123938
47.7899333333333,9.32875333333333,-1.83581666666667,-0.0384014340869223,4.37100153717796e-05,-0.999262391941927
47.3789,9.95987,-1.81999,-0.0383952271732126,4.96380052518036e-05,-0.999262630176064
47.71465,12.3076,-1.832725,-0.0804182287444684,-0.195812174829579,0.977338478048477
47.0557,13.6955,-1.64279,0.0125590009869494,-0.256096444673492,0.966569647009364
47.22418,14.5993,-1.0872928,-0.108108457145426,0.969402945279113,-0.22038713932037
47.5594333333333,14.7628666666667,-0.608771,0.239576394638599,0.777742696231851,-0.581136343373895
47.5143,14.9152,-1.49267,-0.0877819333449921,-0.947986210352288,-0.3059680982719
47.3861166666667,15.39225,-0.2479625,0.162585399282392,0.17780883712723,0.970541088970296
47.2597,15.9694,-0.164888,0.330769500153508,0.154502663985536,0.930978229922468
47.3196,16.1998,0.825543,0.823506403173595,0.482604391422587,-0.298211678697737
48.1504666666667,-1.64151,-1.84975333333333,-0.0456892103139879,0.0729440165090578,0.996288947302142
48.596,1.27486,-1.86687,0.121934537806119,-0.0192494780095754,-0.992351462983941
48.49475,2.035965,-1.86298,-0.0349044674752964,0.00967489889863474,0.999343821955971
48.6354,4.15579,-1.86838,-0.0349044674752964,0.00967489889863482,0.999343821955971
48.3067,7.99035,-1.85572,-0.0384138479058483,3.18540356019047e-05,-0.999261915252646
48.1172,9.13069,-1.8484,-0.0384138479058484,3.18540356017451e-05,-0.999261915252646
48.1599,10.7191,-1.84996,-0.0383965806573275,6.52956095250504e-05,-0.999262577269012
48.74445,12.6733,-1.61672,0.12502499783948,-0.160973309138732,0.979007836363001
48.56395,13.2192,-1.695555,-0.0557778712991808,0.0235887028410683,0.998164516586123
48.1272,14.462175,-1.34403,-0.386484571773176,-0.531121367223322,0.754015761811472
48.61015,14.88605,-1.442505,-0.664791990307097,0.60130187837338,-0.443269286876695
49.1789,3.61812,-1.88927,-0.0349044674752964,0.00967489889863482,0.999343821955971
49.323,12.5164,-1.89393,-0.222796254757531,-0.935803839815828,-0.273190413909362
49.5183,13.0835,-1.72891,-0.154014409834239,0.183781831153145,-0.970826349097205
49.4048,14.983,-0.862087,-0.0054891357291503,-0.979989052089047,0.198975694934224
49.4852333333333,15.0767333333333,-0.518112666666667,0.100594920240228,-0.971688243496659,0.213781709863681
50.2731,14.2514,-1.75516,-0.0143071009088248,-0.372893306989982,0.927763918497405
50.3945,14.0928,-1.583355,-0.0600278189714082,-0.312712782655808,0.947949036875505
50.6788333333333,15.1303333333333,-1.23841666666667,0.0246744041751689,-0.999669353310087,0.00723587114264045
50.8661,15.2072,-0.710054,-0.110195808444295,-0.958909509779132,0.261437250323002
50.7311333333333,16.3313,0.117927666666667,0.304313341613679,0.916451321473147,-0.259827568756739
50.78562,16.45286,0.5671544,0.357320484174834,0.928071147863773,0.10490956148932
51.6506,12.7794,-1.62296,0.0314276807771989,-7.84032377501003e-05,0.999506025361478
51.6003,13.6319,-1.62132,0.0314276807771989,-7.84032377500934e-05,0.999506025361478
51.61778,15.04548,-0.9732724,-0.129355349932626,-0.911878117869594,-0.389545236903771
51.4104,15.2959333333333,-0.538354666666667,-0.0273769077832946,-0.778861907525265,0.626597665114011
51.2687,16.20845,0.0893425,-0.194224959126841,-0.945236633402691,0.262305875126204
51.012375,16.35005,0.66757,0.657277861593643,-0.738827124630025,-0.148728923111201
52.9197,-3.61312,-1.47821,0.474903520483667,-0.509247882136032,0.717727831961521
52.5848333333333,-2.55317666666667,-1.83630333333333,-0.0823573142560504,0.392586920712977,0.916020077549413
52.8354,-2.044895,-2.02948,0.538368693883441,-0.23521236030959,0.8092183234479
52.3798,12.7414,-1.64589,0.0314228992944644,-7.71694268317386e-05,0.99950617579123
52.1534,13.34,-1.63873,0.0314276807771989,-7.84032377500986e-05,0.999506025361478
52.1734,14.0031,-1.6393,-0.147362130390156,0.417940146295898,-0.896443214398457
52.39672,14.98588,-1.0972638,-0.0937949139620138,-0.934605285474783,-0.343096887886582
52.2977,15.1124,-0.486571166666667,-0.217196255405222,-0.786229684220747,0.578505549055576
53.8205,-9.26413,-1.8794,0.264222228428446,0.133643836463039,-0.955157546679995
53.5142,-6.84336,-1.86874,0.964234413469363,-0.087074923585577,-0.250339676367849
53.6324,-5.36241,-1.87288,0.938291856735088,0.330741240553426,-0.101087206815704
53.6421083333333,-5.57558166666667,-1.4045075,0.961996146076305,-0.152495432117816,0.226513924776243
53.3771142857143,-4.67133571428572,-1.30450714285714,0.989165623171439,-0.0460475172041453,-0.139395107859614
53.2266857142857,-3.63089642857143,-1.31377292857143,0.949049590463473,0.217874117522022,0.227674644515183
53.1428,-2.68415,-1.43797083333333,0.965764570773506,-0.163705943496187,0.201244025756513
53.500225,-1.7014025,-1.86827,0.0919568204639872,-0.295361335702801,0.950949853852458
53.50945,-1.86015,-1.49441,0.241880503110073,-0.595642834776961,0.765965688261611
53.7733,2.04575,-1.8778,0.00144529463215156,-0.00552137810825188,0.999983712620967
53.6803,12.8343,-1.68677,0.113752044098863,-0.250071837272026,0.961521995934947
53.825,14.718,-0.751426,0.0369229451244903,0.761211791756709,0.647451391390793
53.405475,15.019275,-1.025553,-0.106840415286708,-0.0579218920760846,0.9925876183389
53.4538571428571,15.1976285714286,-0.293078142857143,0.729255858650303,0.14439560935957,-0.66883166837545
53.42435,16.0847,-0.1864285,-0.94191342584771,0.257029033014787,0.216183196375929
54.3367,-9.13304,-1.89743,0.620613876729814,0.152539805635998,-0.769135894174055
54.0752,-5.14172,-0.849273,-0.795387273503002,-0.293071327296695,-0.530535844468603
54.15565,-2.5220275,-1.228625,0.488139292365527,-0.508109551801719,-0.709608846208063
54.1592,-1.93533,-1.5602775,-0.386495992409298,0.818103259294637,0.425826144081176
54.624,-1.14616,-1.90751,-0.0754080792679297,0.376552856288921,0.923320945284887
54.356,12.7716,-1.89795,-0.0481328152748041,-0.0573524485613911,0.99719302481402
54.4755,13.7076,-1.90205,0.0661868924913115,0.259265544646952,-0.963535506673866
54.5811,12.8229,-1.71509,-0.048132815274804,-0.057352448561391,0.99719302481402
54.6077,14.0797,-1.43011,0.330892406876481,-0.815212293052607,-0.475330550593373
54.0201,14.7707,-0.565596,0.185467465309627,-0.885679568154568,0.425644830657156
54.5687666666667,15.0852,-1.080672,0.435796083220679,-0.134632818423129,0.889918972745811
54.8519,21.9103,0.191292,-0.378246010546232,0.903198278163269,-0.202886238638224
54.8755,21.92205,0.765366,-0.533007798623702,0.836857351676209,-0.124789661237608
55.4367,-1.38124,-1.74217,-0.0335912035744424,0.558883525772787,0.828565528888452
55.2446,-2.02839,-1.15721,-0.15278033419245,0.58874188995695,0.793751319050218
55.67825,12.50325,-1.749595,0.0307358359426571,0.142076293339567,0.98937840852719
55.0929,13.8598,-1.53865,0.00481162411282644,-0.163095247214653,0.986598595483182
55.4362333333333,15.0317,-1.35320233333333,0.393304279644525,0.19604988131936,-0.898262872241732
55.8102,15.14215,-0.3892805,-0.0506010219401044,0.749225206245587,0.660379532469681
55.3275,19.6733,0.965172,0.0799208352216374,-0.00698175493553111,0.99677676296927
55.052,21.7117,0,-0.378246010546232,0.903198278163269,-0.202886238638224
55.5047,21.19625,0.968085,0.568775301262444,0.639425201252934,0.51732974849361
55.242025,22.208925,0.7229615,0.860244105284786,0.505040178972555,0.0701034731389774
56.4158,-1.84961,-1.57584,-0.00630534912088035,0.600112042454339,0.799891104509699
56.1887,4.13282,-1.7658,0.0602164584334593,-0.00476365545700906,-0.998173975677797
56.6209,10.16641,-1.77932,-0.983586909781701,-0.161237134675909,0.0809899827607517
56.41815,12.78785,-1.87147,0.0348851323488177,-0.166101664214269,0.985491382350072
56.0440666666667,15.0549,-1.108651,-0.0754380657590236,0.997136391614928,0.0053023345516913
56.2551,15.19076,-0.315019,0.995059279015462,0.085623780608135,0.0502553423985734
56.7627,20.6873,0.890862,-0.149378984086983,0.19577180325058,-0.969205509768262
57.3945,-1.88152,-1.40269,-0.211789270587803,0.2541973483545,0.943678447858924
57.6778,12.8343,-1.81244,0.0228396952408589,-0.310664116835364,0.950245312975659
57.4021,13.7227,-1.60319,0.209821166858813,-0.315996201577889,0.925268327852171
57.5698,14.3851,-1.2069455,0.16476248157807,-0.87595389862523,0.45338514769178
57.3531125,15.0288125,-1.02595775,-0.206070695660186,-0.878013064889436,-0.432004544274232
57.274725,15.177375,-0.34965325,0.427474364639363,-0.600026310966937,-0.676190870778053
57.42025,20.5436,0.8013005,0.169061647273364,-0.142619563243307,0.975232187533566
57.2710333333333,21.2514,0.93207,0.219322459409115,-0.206669573195129,0.953512111257157
58.9054,-14.4924,-1.85093,0.0314227523090177,6.10544735633496e-05,0.999506181526496
58.4504333333333,-3.24592,-0.135773333333333,-0.518675045302494,-0.345259555635068,-0.782158575113213
58.79685,-3.613055,0.513023,0.843700860738811,0.489066279350969,-0.221321106066252
58.253375,-2.890595,-0.91495925,0.479378343785866,-0.539275866235661,-0.6923712469513
58.4314625,-2.927845,-0.152783625,0.723276048265936,-0.299069080895882,-0.622438304458285
58.4578833333333,-2.90060166666667,0.611756166666667,0.416944931388582,-0.907205071874074,0.0559989442340381
58.659,13.7795,-1.63831,0.109671844132267,0.0213261152598904,0.993739041908161
58.1046,14.3747,-1.62278,0.0631468143375124,-0.468789195403041,0.881050038370349
59.7671,-13.5874,-1.878075,-0.240936979669829,-0.0598450015003153,-0.968693939086545
59.5664,-9.28956,-1.87191,0.912124182200538,0.384822967702194,-0.141211755083901
59.36835,-8.54332,-1.8657,0.853195104532652,0.515899215786019,-0.0768512378097256
59.2918,-8.29187666666667,-1.44901333333333,0.770154430954852,0.629953712025865,-0.100102313586862
59.0877333333333,-7.79127666666667,-1.85689,0.773634596098464,-0.0831973860686248,0.628146246244388
59.24503,-7.757608,-1.4063564,0.892253877293088,0.407748823297848,-0.193968852021843
59.452,-7.78285,-0.1036005,-0.921232659796634,-0.200805300190479,-0.333178057409893
59.57148,-7.846072,0.7072492,-0.521903977814929,0.846788258317245,0.102790483591624
59.0435,-6.60727,-1.85551,0.454096082955358,-0.0566738478355072,-0.889148369180374
59.0045,-3.74256,0.823911,0.832281523381665,0.42668990467084,-0.353897147614224
59.0916,-2.58307,0.825127,0.618170007410949,-0.78299829535135,-0.0691340105478314
59.3747666666667,13.375,-1.65832666666667,0.00941416821607192,-0.108089940649696,0.994096543685343
59.407,14.6955,-1.45167,0.915717869239763,-0.391865090381744,-0.0888962029284534
59.60676,15.11416,-1.1651952,0.896625919425323,-0.376043564673473,-0.233780234584452
59.6663,15.2265333333333,-0.555352,-0.162110482593786,-0.724425582023016,0.67002072172719
59.56115,16.6631,-0.000204249999999996,0.989654348198103,0.143086520462634,0.0105127900427587
59.6313833333333,16.6835,0.624466166666667,0.79489497605506,0.582826394331054,-0.168687199020815
59.6675333333333,21.6544666666667,-0.138742666666667,0.975863086263876,-0.0556226315101625,0.211180869709894
59.7084,21.7585,0.416576,0.905029141939401,0.383280721776775,-0.184440073071733
59.5807416666667,22.303525,-0.104069083333333,0.998664960220957,0.00362265638961927,0.051528376527473
59.7517,22.2189,0.416856,0.893553046273182,-0.0448225531284945,-0.446714553408504
59.4251,22.8387,0.207267,0.959983340314903,0.12166786278356,0.252247730383293
60.7302,-14.4357,-1.9083,-0.259656059636964,-0.375822291934897,0.889570871588434
60.0825,-13.6599,-1.88799,-0.989652105405016,-0.0085896473811928,0.143230332769583
60.80925,-13.368175,-1.486075,0.729713570701241,-0.674334226236613,-0.113099319451149
60.9149,-13.4089,-0.637864,0.870482592050484,-0.262376153486894,-0.416435842619835
60.3471166666667,-12.72425,-1.96669166666667,0.902710673362022,-0.386460872490271,0.189106938615017
60.82655,-12.76335,0.2123095,0.984899176723152,0.0932795156978415,0.14585110092568
60.81858,-12.6875,0.6367638,0.797140315261887,-0.452521455629728,0.399739477633785
60.0636,-10.70275,-1.88751,-0.147947416879299,0.00902456554546783,-0.988954053055782
60.151,-7.45084,-1.89031,-0.185503219357992,0.982376062286917,-0.0229309366026053
60.167,-1.73574,-1.68062,-0.192569697589119,0.852260994168593,0.486382677928806
60.475,13.4553,-1.68907,0.0205296925957282,-0.111444082692291,0.993558628443636
60.6426,15.0542,-0.84666,-0.0651288508151512,-0.981381921588131,0.18068690260084
60.49705,15.26955,-0.31607,-0.0428812456651329,-0.934723068325791,0.352780362704368
59.9789,19.7452,0.837147,0.742245391597753,0.386485921907371,0.547449002939368
60.5065,19.917,0.211114,0.222799566328702,0.47634380926919,0.850562712922839
60.624,19.956,0.423054,0.222799566328702,0.476343809269189,0.850562712922839
61.0021,-13.331725,-1.06461675,0.895625871412285,-0.427773928734448,-0.121917038809515
61.1531285714286,-13.4246857142857,-0.121933,0.988729797550108,0.134757956936802,-0.0652202459267139
61.2414666666667,-13.8176666666667,0.641121,0.977944940712459,-0.159661990110449,-0.134654156448569
61.1052,-13.0727,-0.3201595,0.999813463359158,0.01700103462481,0.00916533182438417
61.16695,-12.7104,0.533967,0.892178726066624,-0.0628631025145904,0.447286654279308
61.1304,12.8461,-1.7074,0.0279299675824102,-3.79176133759041e-05,0.999609881640383
61.6018,14.2678,0.860083,0.195351623803093,-0.933580966560445,-0.300440213609232
61.1955,15.0881666666667,-1.139,-0.0626877566221191,-0.994851875345555,0.0796240622621005
61.2863,14.9578,-0.641724,-0.110295875647476,-0.975500466938352,0.190351408763409
62.9371,-25.2143,-1.75638,0.677189223341634,-0.218553327823357,-0.702601735471305
62.3867,-25.2365,0.217559,0.144781230122217,-0.551462005995694,0.821540048535373
62.6468,-24.5911,-1.7484,0.806516057180802,-0.138496806004757,-0.574761241069728
62.3474,-24.827875,0.761394,0.144781230122218,-0.551462005995694,0.821540048535373
62.8859,-24.1818,-1.97471,0.0757624865434352,0.956612092931389,-0.281342050341188
62.3288,-12.5032,-1.95865,-0.0903874620667546,0.715339519652213,0.692906543716302
62.1947,-1.30486,-1.95455,-0.274978541725974,0.905376658178707,0.32354274588594
62.5624,12.8903,-1.74741,0.021249713784609,-0.109556432674154,0.993753408911781
62.2373,15.1376,-1.73822,0.401251275990894,0.914420191504097,0.0532271254652213
62.34024,15.0266,-1.219056,-0.156975299786149,-0.98715011875178,-0.0298897692429375
62.3548,19.1754,0.217585,-0.153492135854431,-0.357059394871556,0.921384150484912
62.4567,19.4762,0.435879,-0.153492135854431,-0.357059394871556,0.921384150484912
62.8535,37.4484,-0.874157,-0.676398254630748,-0.73218589065632,0.0799326132207002
62.83516,37.43378,-0.2184156,0.699255807394682,0.714858214891219,-0.00436445040645775
62.84925,37.537575,0.7100825,0.915659600850152,0.400356748237636,0.0358046018205288
62.46,37.9572,0.868433,-0.716941246799451,-0.661631442678058,0.219633974369631
63.4737,-26.81365,0.7753965,0.0647658787992137,-0.992373821749124,0.104878877045874
63.5375333333333,-24.6358,-1.108215,0.844065036711692,-0.53379497080158,-0.0511580193892438
63.5798625,-24.5550375,-0.1663115,0.540229250914756,0.391943885176211,-0.744669287220212
63.810275,-24.685475,0.667598,0.70378050292767,-0.661654658889977,-0.258662165899971
63.0895,-23.7522,-1.76097,-0.570987430807736,0.398922479886233,0.717519483290175
63.5355,-23.7858,0.886539,-0.453422226856058,0.145297668649528,-0.879372999174927
63.4571,12.8147,-1.77241,0.0179892969743014,-0.141011939265447,0.989844441404289
63.3906,14.6268,-1.54907,-0.0852627915645607,-0.609497293616275,0.788189891745038
63.1016,14.8217,-1.54199,-0.348253879826112,-0.928326193637293,-0.130114232092247
63.2367,15.1714,0.882894,-0.213165709145379,0.970696384909298,0.110945521624665
63.0604,37.19505,0.109552,0.755852975143684,0.650582361869199,-0.0736808685557879
63.1743,36.89445,0.7690895,0.889866904146142,0.45053706433343,-0.0717861168136001
64.8073,-29.721,-1.80747,0.799767137694397,-0.54437298934436,0.253042632645956
64.73645,-29.68415,-1.466765,0.799767137694397,-0.54437298934436,0.253042632645956
64.26395,-24.3776,0.5603535,-0.497625776695113,-0.842305843763481,0.207097686926909
63.9976,-23.9564,0.223232,0.779697233288731,-0.191737792107515,-0.596077883736373
64.59405,-23.56385,0.789014,-0.477813538003754,0.648214051436164,0.592885120762066
64.4542,14.3386666666667,-1.57508,-0.108090507413886,-0.389671581729276,0.914588705703068
64.5402,15.2164,-1.013237,0.104478357247842,-0.683716684836296,0.722229719509836
64.6406,19.3249333333333,0.827069,0.184366310416255,-0.0948401992493388,-0.978271128159184
64.0641,21.6477,0.1115925,0.961352294923604,0.274543770114743,-0.0206756701536643
64.1354333333333,21.6731,0.671222666666667,0.949344199199432,0.313633061448275,-0.0194908751207151
65.1824,-35.6013,-1.81545,-0.488568488443529,0.508143812640926,0.709288867651783
65.6203333333333,-34.8569,-1.98082333333333,-0.488568488443529,0.508143812640926,0.709288867651783
65.7642,-27.2753,0.687904,0.971233829286672,-0.108902968950454,0.211766362302714
65.8210666666667,-26.9625,0.688491666666667,0.923813660775346,-0.382490716157969,0.0164064687796713
65.9136,-25.3349,0.91965,0.541640373854056,-0.0838233469326072,0.836420559240538
65.0621,-23.5964,0.2269635,0.360267060163684,-0.23845691242081,0.901856943356179
65.3773,-23.4526,0.570842,0.325232090363755,-0.342846891503043,0.881294557105808
65.2772333333333,-22.5985333333333,0.227737666666667,-0.144706697474966,0.58710044371107,0.796475386123233
65.44788,-22.64005,0.7081547,0.738098997875055,-0.297455475470994,0.605582454706346
65.540425,-21.780325,0.1717385,0.343520832650603,-0.133804530860419,0.929564298505627
65.72752,-21.70062,0.733958,0.963502282512459,-0.134391763178126,-0.231521501340928
65.2831,12.9164,-1.82342,0.0262278335228256,-0.17087667497292,0.984943278924679
65.1445,13.6883,-1.59198,0.0147871866619438,-0.160833839662095,0.986870718549381
65.5578,15.2906,-1.25809,0.0824801467742601,-0.863884367831715,0.496891159514933
65.7787,15.5073,-0.688776,-0.0266528502773807,-0.836168992297457,0.547823915042367
64.946,19.6951,0.906584,0.106790229896575,-0.00443416246347953,-0.994271685708632
66.1274333333333,-35.4361666666667,-1.22736266666667,0.36019672294131,-0.82715202250165,0.431367421641657
66.29515,-35.48235,-0.153946833333333,0.968108373920646,-0.241104460694285,-0.0680794783913719
66.4016,-35.3542,0.69352,0.645610044561418,-0.750674494008269,-0.14026929245859
66.60315,-35.08685,0.1158865,0.607490484174064,0.352039149760976,-0.712056001079641
66.7387333333333,-35.0363333333333,0.697422333333333,0.544335409088204,-0.820149773928582,-0.176219495906879
66.3475,-26.3336,0.115246,0.788403734710365,-0.409347165138958,0.459188903924569
66.1700333333333,-26.5444666666667,0.691935666666667,-0.241235594118079,0.797674799271704,0.552738910098922
66.3847,-26.0145,0.463059,0.793957322521135,-0.348275470101381,0.498333188680758
66.489125,-24.559925,0.579085,0.578209382171705,-0.107135297786953,0.808823799313989
66.2520666666667,-23.6216,0.770548666666667,0.621464252217551,-0.120673055949712,0.77409314477228
66.0727,-22.6812,0.461041,0.860613799567084,0.240109350687944,0.449100643182485
66.0491,-21.591675,0.6913115,0.983243951397404,-0.169316967671901,-0.067550695768528
66.0248,-20.9392,0.921586,0.999889916570405,-0.00954470636578329,-0.0113601637848747
66.5347,12.8924,-1.85839,0.0236353136132029,-0.214094267141835,0.976527017919835
66.4167,15.2715,-1.15934066666667,-0.126762149457948,-0.275534217710472,0.952896768981551
66.8492,15.4825,-0.69999,-0.113962478894612,-0.876678673898753,0.467383200527488
66.0181,15.8386,-0.921727,0.0862917755511765,0.844377034117964,-0.5287543415674
67.8214,12.6466,0.946982,0.440530249893649,-0.816917334695531,-0.372262229084
67.436,13.8932,-1.64799,0.0302343645536567,-0.261179950911645,0.964816519573451
67.4598,15.2853,-1.41294,0.0244448240714061,0.957383397951222,-0.287783738080334
67.9957,12.8982,-1.8992,0.0161065529821787,-0.225799374532209,0.974040667226936
68.40245,15.27765,-1.074004,-0.0223626008654058,-0.995454339081541,0.092577388633876
68.702125,16.6954,0.05968675,0.74148981198462,-0.470145947298919,-0.478702044033045
68.82105,16.5103,0.6004735,-0.312694117357713,-0.670945505642802,0.672349996227862
68.0204,16.88535,0.8310605,-0.0112604194649046,-0.954057251496298,0.299412698162258
69.5927,12.9178,-1.94382,0.0288348495874519,-0.206729274313811,0.977973189096181
69.7161,13.5076,-1.70374,0.000105488714722098,-0.261278582984043,0.965263430855009
69.4242,14.0184,-1.69658,0.0821669087416638,0.231382858847046,-0.969386698763505
69.466025,15.26885,-1.27272675,0.618158320419739,-0.108184052269447,-0.77857337594501
69.2566333333333,16.5179666666667,0.000302000000000006,0.557310103933318,0.77456396939205,0.299092135258461
69.33435,16.34495,0.7260055,0.316452052052445,0.824713389711658,-0.468727984637256
68.9938,16.8384,-0.481608,-0.212715184797884,-0.868522180946807,-0.44768456680994
68.9974,16.83995,0.7225285,0.506478784856084,-0.859833904920998,0.064536008855619
70.47246,15.33296,-0.885222,-0.172521192593771,-0.569401222727247,0.803752875990337
70.7765,19.3532,0.988076,-0.0268415003042407,-0.173260921843622,0.984510125302587
71.60865,13.2928,-1.87455,0.00297676008203457,-0.261090077811251,0.965309851896234
71.355,14.1783,0.996307,0.897514454845115,0.394612485717462,-0.196847122051508
71.8208,39.0472,0.499963,-0.162717344941336,-0.969410767633984,0.183754807421556
72.483,12.8654,-2.02456,0.0153866682609179,-0.254749348710419,0.966884698281779
71.9777,13.1284,0.753743,0.878364890994353,-0.437347495188164,0.192878943177107
72.8502,15.3493333333333,-1.18668133333333,-0.427556013164148,-0.888470395277154,0.166781930445824
72.2221,17.0263,0.756244,0.00558165966740844,-0.738914721276434,0.673775837913714
72.7340333333333,38.7278666666667,-1.012848,0.0363017993529232,0.997049787703067,-0.0676306158851845
72.72285,38.7176,0.000268500000000005,0.528355786504922,-0.031034923394723,0.848455653759611
72.25075,38.8721,-0.1257415,-0.157014232709363,-0.982453061408739,0.100660383742996
73.1973666666667,15.2439,-1.10721666666667,-0.427556013164148,-0.888470395277155,0.166781930445824
73.5881,21.6833,0.256797,0.773573233437795,-0.37491191969054,-0.510906552103756
73.7891,21.4287,0.772534,0.773573233437796,-0.37491191969054,-0.510906552103756
73.7957,22.0601,0.128685,0.773573233437795,-0.37491191969054,-0.510906552103756
73.1772,38.551,0.509564,0.150517239706613,0.975440707207579,0.160810407851856
72.96495,38.84675,-0.2539375,0.551787480955454,-0.0753478375876735,0.830574066072193
74.8809,-4.74984,-1.30705,-0.125275155969896,-0.121784260724867,-0.984619078190351
74.3418,-2.550575,-1.427495,-0.594143041008601,0.362612968869042,0.71798738263916
74.3155166666667,-1.55838833333333,-1.94564,0.433527669839982,-0.703876797919728,0.562682159689986
74.53715,-2.003275,-1.56133,0.219310966891515,-0.846044208577679,0.48591346650744
74.6075,-0.978116,-2.08398,0.372720368433962,-0.409156298642288,-0.832868927404423
74.3998,13.8088,-1.81821,0.00344365327758257,-0.46200751278212,0.886869324864144
74.2863,15.18465,-1.42661,0.0863673543026506,-0.916729742214529,0.390060584845539
74.0073,21.4914,0.516534,0.773573233437796,-0.37491191969054,-0.510906552103756
74.0035,22.1227,0.516491,0.773573233437795,-0.37491191969054,-0.510906552103756
75.29,-4.18163,-1.31419,-0.125275155969896,-0.121784260724867,-0.984619078190351
75.2436,-1.4298,-1.576125,-0.339820237216951,-0.873945803426144,0.347477969160126
75.0607,15.5285,-0.786006,0.0863673543026506,-0.916729742214529,0.390060584845539
76.6086,13.5964,-1.87221,-0.0137986525593733,-0.299735998276105,0.953922391248351
76.7512,13.9333,-1.87568,0.0842425396999885,0.297970757727221,-0.950850473021054
77.5837,-16.7586,0.812415,-0.236915572147917,0.110214791609981,-0.96525836509413
77.3041,13.0936,-1.88922,-0.023636653307833,-0.297971231806025,0.954282166676296
77.40495,15.5385,-1.21652,-0.0199918472644333,-0.48012339596029,0.87697311857007
78.7258,-18.3047,0.274774,0.717697561780865,0.555209048962543,-0.420301227411852
78.9189,-18.0229,0.27545,0.717697561780865,0.555209048962543,-0.420301227411852
78.54315,-17.289,0.685372,-0.0713555112294209,0.286632629836855,-0.955379571966031
78.3797,-16.93,0.547155,-0.236915572147917,0.11021479160998,-0.965258365094131
78.1806,-15.6049,0.818684,-0.209557273409195,0.0236705092084389,-0.977509824070898
78.3209,-2.60129,-0.911330666666667,0.979421134248694,-0.0911795652600937,-0.180057015042408
78.5372,-2.57650692307692,-0.0630947692307692,0.965264188358364,0.00930376966032451,-0.261110104252932
78.719275,-2.6657725,0.68708375,0.954311203717454,0.0112251273712989,-0.298603621838118
78.38565,-1.729095,0.8208825,0.724584848473436,0.61030668404242,-0.320160192366063
78.1174,15.522,-1.09073,-0.0627987852680341,-0.55918390884128,0.8266617619449
78.21528,17.08032,-0.1638716,0.998659165648533,-0.0345735094145665,-0.0385297717737397
78.28324,17.09536,0.7102394,0.735131420065918,0.67725599283702,0.0301017507499175
78.1463,19.7251,0.818245,-0.292017976538602,0.0719596216081749,-0.953701900090541
78.46965,20.3004,0.8216185,-0.292017976538602,0.0719596216081749,-0.953701900090541
79.5005,-18.4858,0.832462,0.684296210111545,0.642072611425104,-0.345660901006642
79.1873,-18.084,0,0.717697561780865,0.555209048962543,-0.420301227411852
79.368,-18.1258,0.554042,0.717697561780865,0.555209048962543,-0.420301227411852
79.0148,-15.1259,0.551607,-0.209557273409195,0.0236705092084388,-0.977509824070898
